-0.1723722859312942,0.07713124538444527,0.06005639427353116,-0.005034989554254854,-0.09255286740261809,-0.1923645857705116,-0.1408557554123691,-0.119296184043599,-0.332176570165493,-0.5705838039644582,-0.5876152773665899,-0.5415817032225939,-0.6690260404862045,-0.7751910824620383,-0.6365573615719471,-0.4028657174022526,-0.1916072288609697,-0.177327338012325,-0.04619672197890684,0.3022650815626481,0.459693859156428,0.5033157515935578,0.6081269196322164,0.5081700049558778,0.0756071562046568,-0.193678133783343,-0.1786950571394537,-0.06626549577892113,0.1972645574064145,0.4547915029446993,0.4257761623482686,0.2866426511432392,0.3859271598981688,0.612154347879554,0.5644132597357384,0.6858530344835676,0.6545716442840904,0.7669069344192654,1.079740891286563,1.694868086798598,1.763772294217216,1.711653912060266,1.983098017043006,2.134246629287504,2.289242429810254,2.303696425362187,2.22428220352456,2.142687911276563,1.869260442403354,1.804068941112898,1.867684247580073,1.875717654142803,2.100804801969402,2.179771006149342,1.914312423583925,1.744785572326704,1.57123183238819,1.420336871005432,1.583906327167979,1.648531264975634,1.786600804382118,1.790411734810215,1.872067087020548,2.143572318860609,2.102082198650027,2.054255735563067,1.996419336770565,2.037751440879522,2.083967050064121,2.154096576640415,2.027035189722606,1.887411922532742,1.790127449522517,1.69568357606667,1.576653053828917,1.405135823286567,1.345036787371912,1.319490085029404,1.443982946430379,1.686138803125335,1.771944752496459,1.852386565810221,1.788453358992743,2.078791159402093,2.259105518982677,2.148501442397207,1.909164921444427,1.73484454037424,1.598408579667528,1.444853428897035,1.507825085907496,1.429094884825947,1.174578029135588,1.143304174872927,0.888748712331483,0.6663141120375253,0.6235221936984537,0.3538302706614917,0.2353523688741925,0.1743944265913499,-0.02480506981302866,-0.1053902129774461,-0.08731261702795573,-0.3334503648449911,-0.6122767696319638,-0.6378420427255717,-0.5797769037440414,-0.4298007533534223,-0.03198923812859406,0.1242870143002884,-0.02560562775796793,-0.08684411360503641,-0.09596964185309523,-0.1520981638974668,-0.2078495302084059,-0.2274667003679426,-0.247508197509149,-0.225120288997027,-0.2994717061900715,-0.4955458925957302,-0.649086555132882,-0.9450598483676728,-1.061595155834691,-1.09247733090189,-0.9587427408933228,-0.6292294380224606,-0.3552236965578252,-0.1383828483576593,-0.1559571194632666
0.1097558906534799,0.2892695532921569,0.2357799738728785,0.06268356247801529,-0.1436574451984678,-0.300795454526774,-0.3666971699124563,-0.459048526849989,-0.587661957265206,-0.6941695312296791,-0.6255325477929,-0.5420850710292839,-0.5716922880832773,-0.5991563578164065,-0.5199907034417129,-0.262988255352268,-0.07191356152725045,-0.08667407835550522,0.04091253235110753,0.3157142204698171,0.524464597423171,0.5299522085100874,0.5140707625788697,0.3782059281796093,-0.02681407352128284,-0.178088485598363,-0.05547377377718754,0.0942928137532571,0.2075495125471072,0.4336689257369434,0.5719265257223037,0.4631145694042854,0.6472337230140646,0.7667646466072742,0.6651350223592153,0.7084029769329782,0.8229474400366296,1.00570608427653,1.300106412981859,1.701254609905458,1.80210712674505,1.804740358635785,1.856823768317782,2.135178877237432,2.377385883681242,2.543086627355818,2.539046750658021,2.38437000663133,2.249387372710961,2.145263872296522,1.997059121399459,2.047773286741614,2.309800577748272,2.216479674486008,1.872762852883032,1.623448090244057,1.425116124361419,1.24178785259792,1.363626223348094,1.437781199916219,1.523489908362059,1.551099464619274,1.523731278054274,1.734876610415226,1.764075923684824,1.826068327478026,1.900672040805222,1.89907277809923,1.905886229612061,1.805634261811938,1.78187118735945,1.656737516835584,1.587433059982018,1.521586398590302,1.342126546493734,1.221739857835056,1.118991853873559,1.162845724167708,1.542003979203681,1.814165766621693,1.95163219235215,2.04607941860551,1.921185301451077,2.141384707188057,2.475371468682086,2.367842792311012,1.975434713956692,1.898602885877136,2.018636573332993,2.035161040832455,1.906603834196815,1.674658474633707,1.294197729043309,1.242311995189533,1.037581971536246,0.6859281969979614,0.5146468900130001,0.3726011034791702,0.2840857593803041,0.1338643740594776,-0.1271523322432742,-0.07418001759793895,-0.05219819942264209,-0.3289392785672826,-0.6672751628863491,-0.6805281991659335,-0.6821362704020683,-0.6457758849011332,-0.3314994985986768,-0.2168564756707521,-0.3364770055232936,-0.3651741151385039,-0.2921805342634876,-0.3245490617178791,-0.4246110833281358,-0.3928485956026174,-0.3101894714487801,-0.2278663002106054,-0.2177847892051109,-0.2699106290364131,-0.400862595926796,-0.6827302487406935,-0.9050067834039396,-0.9731108330885545,-0.8836852690191555,-0.6461427943286474,-0.4126115141712351,-0.1509729276225511,-0.08992624766006173
0.2283330576727903,0.3503336842029029,0.3306441901394218,0.2196987567564045,0.04648807019721324,-0.1012876532184162,-0.2142066419909004,-0.4587998672247386,-0.5873499599749574,-0.7880336614161449,-0.9137540907498196,-0.883870388318329,-0.7838593017490347,-0.5824553244632282,-0.4399974918286904,-0.2423733574385316,-0.1929777974778971,-0.264887158933299,-0.1223015509757613,0.09740857777799561,0.2647778764863977,0.3325553340630766,0.3647249644998858,0.3002953238975494,0.03717528784543192,-0.09211372468071503,-0.03955810914697038,0.2907155430341031,0.4082696786618174,0.5528542274509881,0.7080923572384203,0.9300748555661198,0.8029742419217788,0.7912077294105522,0.7564477894399483,0.6737207131559777,0.8635883471808797,1.062728369256848,1.348760672784137,1.591663835859596,1.77464677931809,1.966505685039907,2.15742713528492,2.254135142876639,2.365089895050886,2.509205778457811,2.463583353263004,2.298531029789302,2.348228481548641,2.455470786079803,2.281252007539061,2.166181520813145,2.272267827584226,2.224998555723877,1.885749298139733,1.629454886923805,1.518892167605317,1.359020710615854,1.350363441302646,1.285735118319232,1.321110173786526,1.417252706316686,1.236452071363145,1.355436077762959,1.312951373536941,1.451279476461349,1.510107757699736,1.543975780500481,1.547514992219914,1.448339240569255,1.575855726359669,1.563177237092225,1.485463916190948,1.590103994514399,1.406092526082227,1.280600313979373,1.219792689099239,1.096497471242244,1.458998272293951,1.804243515421116,2.142114877428602,2.271541827171113,2.367754899768904,2.41813441794101,2.460550469846273,2.581132475794406,2.392408976857322,2.144415258295406,2.340864505172013,2.475718491130418,2.159527260211815,1.825513436689491,1.661782760470157,1.490349053728057,1.243005292780018,0.9408861130127453,0.7586500803871525,0.5679560810420572,0.2866195779262381,0.1097932218203972,0.09923292577450649,-0.1013438257178715,-0.2232772668675886,-0.4711073039636675,-0.7142713631544821,-0.7818996116553077,-0.8917049875831918,-0.8457403623404356,-0.4886424042330276,-0.3791655498566175,-0.4476663143956272,-0.4854287914906278,-0.3640179438845171,-0.2615040121502466,-0.3499124569507568,-0.4468209522493902,-0.4118504370649231,-0.3507274783417236,-0.3160924917760609,-0.275697779739043,-0.4174285944724431,-0.5817892721724754,-0.8115993027200969,-0.8357686891610118,-0.72264260227554,-0.4292550496090736,-0.06591803281349663,0.1598413949605329,0.2226754344213207
0.3716172405729978,0.4428931678211097,0.4327159122433756,0.3209572499609049,0.1329045705094112,-0.03728886831822908,-0.1360320780531193,-0.3409185697591898,-0.5690439812243856,-0.7923841474552384,-0.9861473699174118,-0.9605380723872032,-0.8120718680122179,-0.5791403833331445,-0.3713397048430068,-0.3204858067842956,-0.3600708705714886,-0.3956100834623254,-0.275141027965335,-0.05463439869829584,0.07478434662536643,0.1836523327599655,0.1873513316514355,0.1050173449650453,0.03859403641653327,-0.02951097958959097,-0.0590092849004988,0.1565637853898237,0.3861604220899525,0.5234412756295593,0.6223540519933941,0.6744158474963391,0.549034684943468,0.6376032431911165,0.6682401085434883,0.6927418656237163,0.6852466886027917,0.8949387088239875,1.243605370192687,1.622750402020743,1.844560674560495,2.021406648571434,2.249552886842964,2.196872293748674,2.238433558361498,2.416165388021883,2.44133866385681,2.431420146791831,2.475660872634395,2.516164278731017,2.46655732567154,2.326143800281508,2.280499862016131,2.147317620382435,1.892288864912549,1.725266554201463,1.639108497719594,1.450446537413597,1.380822123552281,1.231905297796263,1.151384162815582,1.089903719716513,1.16672750737008,1.274266741529501,1.288722771993538,1.327038639132291,1.323039184089321,1.259636681014699,1.210534203841422,1.215840293239438,1.425982999945111,1.466709324229676,1.46355619212093,1.537603439169481,1.572566205715024,1.559688252984574,1.391681499729015,1.298848228201788,1.388689108902375,1.845297850185206,2.26358242292148,2.502080077842895,2.733689577435061,2.663550219340756,2.517618161681379,2.553437320331249,2.578967860540368,2.501275954941536,2.541836321254354,2.632970471228348,2.285886909281314,1.875415478594733,1.577246446646525,1.527233024827721,1.519140173804954,1.33172323974941,1.122881222155345,0.8344338404477425,0.5164132532045831,0.4468219954566158,0.417920718755144,0.2331445750437776,-0.0886349600526784,-0.5153607791670648,-0.8998372120772391,-0.8577698388505732,-0.8061905687483466,-0.6450444611018298,-0.4013098935447525,-0.3696868891476377,-0.4253195408006452,-0.5023292383844155,-0.3483090505593205,-0.2111284789670138,-0.238916616190465,-0.3915958477046854,-0.5575918589105754,-0.4723372900420106,-0.3817721925807498,-0.4784906178601468,-0.5725504387906899,-0.5549510901834378,-0.6524841147956287,-0.7625314484836659,-0.6458161545484771,-0.2774655678290803,0.06153050657489223,0.3161816265455931,0.4975074600950888
0.5216452452419462,0.5629341516498423,0.5377523072527617,0.3657491621672602,0.1407388577607594,-0.1268803244815599,-0.3234727430528995,-0.4484675621114119,-0.6771761084867216,-0.9148712515983775,-1.181506267376229,-1.134522212722142,-0.9339309244222446,-0.6837405608686131,-0.391583236305084,-0.3806153730227316,-0.3880340596135699,-0.3423555643882403,-0.216223123168555,0.05456353156810623,0.239419030425263,0.3301477026077643,0.1690616305324868,-0.09882175941807941,-0.1006595354231255,-0.1117426969946896,-0.1603255408488617,-0.1148568069807353,0.15118491603692,0.3982787634345134,0.483376959130199,0.4988615356112385,0.4552831905198589,0.4836293596298413,0.5705141130190672,0.6898863196631844,0.744239772688752,0.9431129082806478,1.325370926505693,1.825939180548506,1.981431003600741,2.091587442818782,2.261094087972414,2.219990381423409,2.371483800919567,2.493813311610768,2.441957152366713,2.473312789062315,2.461788208878968,2.390905528598997,2.317406367961729,2.322795740851606,2.208205858679329,1.934707885259871,1.829535743062167,1.701587135674674,1.587678133026204,1.584847801460848,1.452458504044942,1.333329693910565,1.124858943188589,0.8871084419850193,1.066757399564401,1.145583879875467,1.169310731749534,1.325724314488173,1.358002863229702,1.133437328912346,1.068599025121806,1.118767353149677,1.111954130982648,1.406862255269267,1.544779728890381,1.455963814049947,1.619455434817733,1.610613741557941,1.391114832343805,1.587489878892792,1.599845088021277,1.767532555175511,2.12471517198768,2.307633414787497,2.629524932520413,2.689883631073347,2.629430444974158,2.545662638764847,2.565999145473111,2.58150002696277,2.623674193996532,2.813448147224045,2.547223412868494,2.065332174562752,1.791087105405303,1.809230156048289,1.73596265108763,1.573346693958537,1.439028918023544,0.935216984699782,0.5668792779687519,0.5658915258799819,0.4831565267712087,0.3794196553976547,0.1647826083485601,-0.3623691670011184,-0.5716654235575366,-0.745074808657078,-0.7905862190717801,-0.6255438025452136,-0.5788674970390691,-0.5620969405710858,-0.5304463346173991,-0.527969015880243,-0.283024734227191,-0.2103787384444777,-0.2319002383468878,-0.2910906324623079,-0.5236404701907846,-0.5958434030004356,-0.7048409103380386,-0.8644456733766427,-0.8164304050695181,-0.7105625240908435,-0.7300147560836109,-0.6584019824131864,-0.3438193906596167,-0.01459748916057613,0.1278561437745086,0.2156517113388605,0.3358602129167884
0.7463613432987836,0.88566293462606,0.8842502032441133,0.6231300895896721,0.221558319133531,-0.1846315184786634,-0.449578051328578,-0.6298923683954116,-0.9296626778251786,-1.222471400618866,-1.381523432572628,-1.187326141136777,-0.8728915689857699,-0.6120245630377034,-0.3970698584683595,-0.3597369663673569,-0.3731966953508158,-0.4167450246051572,-0.2314446392967162,0.1006362699694363,0.2764085113791641,0.2732778975659507,0.07895606673465602,-0.0700168535389528,-0.1476860859403042,-0.3014168754578366,-0.3204600833242459,-0.325316851293698,-0.120720686717769,0.3068588312413515,0.4385453904020311,0.4570877132598584,0.4277759295733382,0.4918694454976973,0.5023662081727092,0.5955390612747232,0.6792384588193148,0.9708891532361428,1.38397775608364,1.828946460407233,2.084485671246342,2.145503930023097,2.292655567402203,2.346492633069021,2.445192533194774,2.504645083974563,2.433951789662154,2.253911295048233,2.261350701748661,2.236365388328586,2.209158284600241,2.187405671190072,2.161547108473339,2.066290664570652,1.959358793391943,1.723916728849031,1.525213903613643,1.393972094950261,1.263159422647703,1.044241997279083,1.003547952550994,0.8950497986205979,0.9689193641044537,1.065923607292555,1.139370108493291,1.270318716251634,1.246311492365886,1.065249386916947,0.9242729234094119,0.8800517192685349,1.055006186524031,1.443306756607538,1.654170650229188,1.603387361676655,1.668103690846185,1.756304424738323,1.631930596765923,1.737443225952798,1.757765193205659,1.774534756183218,1.887111628044002,2.076586937678826,2.470367633071509,2.62643752124227,2.583183058442017,2.664369967932162,2.684581315850403,2.630916645421128,2.415251574029739,2.586297416178682,2.430143332418281,2.006054136958356,1.808512052967591,1.668673609130113,1.524563262985751,1.637704458558641,1.52687746718208,1.144457774453197,0.7276504668552687,0.7078609338664296,0.6471817073114647,0.4797183804908375,0.2516566237037632,0.02624669339632069,-0.2011136426689703,-0.6574959381184114,-0.9304915376496975,-0.7540690867413486,-0.6793262601910421,-0.588005699804758,-0.4783813674631436,-0.4191733634043885,-0.2206526200775333,-0.2250181103031408,-0.3495210246845005,-0.3334963223397716,-0.415552324869726,-0.6652547755545678,-0.9676284961806118,-1.116748477055277,-1.026825892674536,-0.8557783156343692,-0.6750615250631357,-0.3595707838929432,0.04297191631455433,0.3464121871144547,0.3830455157004081,0.3011205511690279,0.1912022510910244
1.00388028968194,1.011169301004618,0.8259304790474257,0.6006697376780139,0.2247936256381877,-0.1941156929929787,-0.4474134744220314,-0.6393964178826914,-0.9649056895004253,-1.23114582407516,-1.204938030567096,-0.9949873922578636,-0.7760300224308253,-0.6268619846773796,-0.5533934483025598,-0.5255669055569971,-0.526672057615643,-0.545957913338448,-0.2357717640242351,0.1096349954397248,0.2445774385372863,0.2039772726406745,0.1024000193984986,0.04100734757232259,-0.2039929864997037,-0.4039736477127603,-0.333215210351988,-0.3284385299562286,-0.2260090944237072,0.2050972581955394,0.3554155716464854,0.3600200048970158,0.3785667311843255,0.5008477264155745,0.6212276042242471,0.7052574806645528,0.8456125455440076,1.120273099383264,1.32432622308714,1.736474472355096,2.005331239552235,2.127769028022022,2.287280185405254,2.347894119282709,2.357032185263233,2.43737696303962,2.403693278253627,2.186597470241001,2.271456368494003,2.19816425513764,1.961404687501339,2.015063598337031,2.114897674007068,2.06241425135742,1.938381770902329,1.850099793615246,1.551295845966661,1.193140635907111,1.109616545066168,0.846372454303042,0.8707114485959975,0.8569053797806038,0.7911362472102907,1.016054690403012,1.130991848225015,1.234976142539532,1.229114521386026,1.054113051158251,0.8362260305373055,0.8101817169093393,1.129841495531813,1.640397498237712,1.810857124351539,1.785336593275973,2.09606064582439,2.243448208732025,2.241189164808382,2.16752273027725,1.977360143255258,1.879576680605354,1.874292363811251,1.847462468192315,2.06766363866162,2.252150535314603,2.295665849404754,2.473732565643119,2.593459697606653,2.525059836743285,2.483903627650933,2.485337048714944,2.207929666020483,1.976956785242611,1.762196324571463,1.610377543544321,1.624020850076909,1.674875890452125,1.504190211663335,1.321499112880597,1.15903342199219,1.02179670204697,0.8847648891340683,0.7528764679227266,0.5377599841800675,0.389783478261481,-0.1901217350764574,-0.6893305723144708,-0.8083055940469741,-0.7976001831244001,-0.7796355349145397,-0.6160612044584064,-0.4372705720477268,-0.3506465937461918,-0.2591596099838807,-0.2338696384690776,-0.3672228839077518,-0.4813261414784574,-0.5835981897333447,-0.7212156664153704,-0.8753184688844156,-1.067591161626821,-0.8988090130632579,-0.7274820062165235,-0.4853022731037301,-0.1775567153120152,0.1215786864791919,0.3649799601523351,0.3233688376901783,0.2704666492539242,0.08079217219029194
0.9305839231437627,0.9810760450677508,0.7986218489660657,0.5521273371368229,0.1801491381994951,-0.2201342560339459,-0.5199130858828022,-0.6761580674266553,-0.8829319510452883,-1.156362366798314,-1.136943582406284,-1.007019394171376,-1.002735003502419,-1.031989725884621,-1.033415587833685,-0.9386171924378688,-0.7266740308546124,-0.5257527140732754,-0.2404109803166301,0.04979627506775602,0.1489994172000871,0.04914845374846469,-0.01623707066154695,-0.07028406517619915,-0.2370112338481532,-0.3714129004953811,-0.3555910925438236,-0.2760217799148293,-0.0901279305116521,0.1846263278694716,0.3021379511170715,0.3363041254186199,0.3245913600486823,0.4993088334195377,0.7676199004710456,0.8629665528094853,1.110461115839993,1.342298805328217,1.530471434579668,1.837331299765977,1.987923178791192,2.078840487280865,2.267750919780194,2.378977367474095,2.343580603555126,2.290400661255366,2.332480927131991,2.181784982325863,2.181653066231654,2.071054868185661,2.011325134139684,2.108208034008216,2.126447701285286,2.07932234255673,1.884501091818652,1.796311775331492,1.486178545805962,1.144936014769039,1.015707032324528,0.8403534992502852,0.84122168248375,0.8458846926709047,0.8229586706122173,1.018897683662567,1.212024803227216,1.257345711991052,1.203875990605815,1.083737755022979,0.9623832241126947,0.9688755259038568,1.321450154574228,1.661344394356666,1.795296981515106,1.916140138034058,2.238000980201347,2.457539894064814,2.49089528955359,2.3565871565157,2.060549830539993,1.808061512595491,1.763409417432046,1.647460500018145,1.711203804560296,2.058528103690287,2.231379345775493,2.39030115741132,2.512849277939037,2.472370309221003,2.431469235841495,2.385455905160966,2.332020813002923,2.071249612147657,1.861559633730888,1.751843185578519,1.600392838206691,1.68040730072067,1.582006915259407,1.54885933727651,1.551836197178352,1.388964965575193,1.245016074405689,1.019308409814363,0.9268050597155872,0.5635740994413985,0.02340058353149654,-0.6355403076892752,-0.9239936406973975,-0.9690245657923569,-0.9752037035067974,-0.7176311210494037,-0.4699018114293619,-0.4407879905838497,-0.3618705168944454,-0.3250776630715139,-0.3889790183155253,-0.475904283316791,-0.6877783638076073,-0.7873017434949838,-0.8158749314318106,-0.9253574414012897,-0.7486008964894642,-0.6389456851179371,-0.4975022620206037,-0.2016846791347475,0.0487475040275844,0.2122194437426989,0.224187644660193,0.163880590158394,0.02381574648747037
0.8207929816493803,0.8995200051615785,0.704266319383327,0.4781735776262928,0.150705808964643,-0.1822977724706785,-0.4120807155191183,-0.5883657740762296,-0.8377052621149399,-1.150304342446641,-1.154328364181445,-1.000607504660744,-0.9999408867853103,-1.077840866881382,-1.057776180661543,-1.044200328692129,-0.858525337180572,-0.6039644069559773,-0.4806142152726239,-0.24468320560535,-0.1798106491051458,-0.2498574763775978,-0.1880966771165898,-0.2296316609873076,-0.3648803838429944,-0.4358824447351454,-0.3962286367768215,-0.2003258882768111,0.06230575599112184,0.2653584789018639,0.296848774016745,0.2801248129216217,0.2336730499323006,0.4759898884216038,0.6715379939927282,0.8846656668207313,1.099303348445603,1.373864798358665,1.536315631839792,1.824580138811754,2.035560498864617,2.122903539994326,2.334965940828017,2.418139482036289,2.287619165923817,2.169107310345685,2.338144453367955,2.311549022726278,2.145857618555923,1.863510221071401,1.938601135718869,2.012512545229205,2.083438012918947,2.080742754130983,2.14585231300219,1.783999453611976,1.574517097818916,1.256768573301261,1.007372081229918,0.9489824526240689,0.9465081378200226,0.9549805064182852,0.9493293817885783,1.143588108481905,1.342351046854268,1.43119213726365,1.442838194903607,1.387097243625284,1.200275427269339,1.189766191604309,1.27819744434903,1.665904289899858,1.943436772354779,2.085708331988668,2.189787552760079,2.211792563811546,2.337922209728909,2.17479918231378,1.995675121183782,1.599559890240212,1.50656536505033,1.459422058034515,1.528860624897455,1.881070083699141,2.04964139749852,2.197050664820131,2.415814811394778,2.464586653372022,2.354179656827372,2.135935929932716,2.260035185299384,2.129028133607434,1.905600197214216,1.918685341782478,1.855272588717544,1.845880450290702,1.808067637463931,1.754394715203405,1.668956188948936,1.68439525150474,1.670501430217204,1.312987771074488,0.9980788613402307,0.7222362830957394,0.2586130783529816,-0.2851663312746693,-0.8274632815353861,-0.7623766329792006,-0.7426289558498367,-0.4987962719905005,-0.2869577820986197,-0.3948802737854691,-0.3764536511363106,-0.5044496393687627,-0.6606770945190659,-0.5930745890324353,-0.8071243720842431,-1.001055797612476,-1.076434450830062,-1.153176980169572,-0.9810914018684355,-0.7904558281640937,-0.6243376284607338,-0.341184653335629,-0.118015801137223,0.04242541281910825,0.1574610658961905,0.022861600219864,-0.1364118953764383
0.7752270451468907,0.6354560493832111,0.3987939649360062,0.2122932873076675,-0.0178005308802533,-0.2182206127096007,-0.3309660040311159,-0.4987280462341249,-0.6305863861096054,-0.7520940588380884,-0.9013542990200496,-0.9799376857328478,-1.005533540362645,-1.008157310251284,-0.952857104587319,-1.033000295786811,-1.051869715771516,-0.8930090512356079,-0.7699632245979862,-0.530517912771843,-0.3388527788619134,-0.3662400491341605,-0.3331041522188438,-0.3825360343367313,-0.466614732364369,-0.4297216102564926,-0.3409817208626508,-0.1008332652140853,0.1743692901112397,0.3023162827886973,0.2693498002504916,0.2227958888832832,0.2432128399182915,0.3753252229098398,0.5380152787019618,0.7447876200228709,1.013674162341095,1.318409429631438,1.515822967333113,1.913639825209294,2.086598315719705,2.107466137551888,2.300796361665501,2.387755012640088,2.277768553443406,2.344790536371174,2.460965762650363,2.245791942735557,2.018847845559945,1.814499460728485,1.976157777507806,2.129655633949347,2.377044138320569,2.315589161852128,2.145263332131234,1.964535103607381,1.826787889580845,1.466822207336816,1.129984953223329,1.101592287582944,1.09865787108434,1.106573402452546,1.169675248131558,1.322813584195341,1.412705695033162,1.503175696919383,1.664505585141491,1.696529389222902,1.568261207275572,1.490245731534308,1.609349796700439,1.881002052002426,2.056060762273173,2.216124320864319,2.250753078873735,2.366259843915588,2.396816846388497,2.19854182900599,2.054913989952408,1.793760103229633,1.539665794658739,1.351642499631115,1.400114869280075,1.644840470356901,1.856409310954876,2.030526670419308,2.199395504115138,2.392040231378658,2.363224658636459,2.183912279665187,2.235170359332393,2.093031429683226,1.9866235850529,2.044429068931792,2.053126575106448,2.147731020936284,1.982939858693693,1.71883486423507,1.781713457477119,1.714725673801012,1.523740590798181,1.310337733257054,1.040212582704697,0.7753803516803155,0.4818453960619324,0.01637563831900124,-0.3427767983130865,-0.499832971623198,-0.656565681804,-0.5075594443513786,-0.3104757800587951,-0.2671860237288027,-0.2352810808793018,-0.4018906526808345,-0.6160952481469533,-0.6459486896392294,-0.757198325296184,-1.028287223471242,-1.331092997700209,-1.461223636360206,-1.310087138149769,-0.9666677821145659,-0.7122314808955181,-0.5096870096883876,-0.2084093881989738,-0.07701671971718421,-0.05751473971493104,-0.1777105649778352,-0.4119854957173704
0.7332963383627946,0.4731441970248285,0.2875882552072826,0.0488213549909769,-0.2217195610221646,-0.3216800335119196,-0.3686953333903561,-0.4921765072198044,-0.4103791355926287,-0.4218098137669765,-0.8066084612905207,-1.135744516979899,-1.217072313949379,-1.183313831965167,-1.140667331857987,-1.106182900357616,-1.092931134387511,-0.969613528520776,-0.80035791570179,-0.620722643974074,-0.3818792019770617,-0.4026509395660621,-0.3984979631589907,-0.5376809304759966,-0.5598108251004523,-0.4321780289552514,-0.3995611082055978,-0.1355845439982948,0.1897730386857336,0.2846238156674774,0.3225986105878688,0.350735658964609,0.2532022456013415,0.4361039665048928,0.6039354599607093,0.6440128245241644,0.9836595708836734,1.326929611963517,1.569512167272627,1.929757718603922,2.059594636747616,2.007877403764929,2.122674297289802,2.175231900968396,2.227217284250617,2.407407239671428,2.408614531099053,2.303938126240222,2.111118974880203,2.041706955224126,2.09171168931147,2.312473924755073,2.555348771332955,2.431393631694466,2.17432693898876,2.002610743228368,1.932241257334579,1.643562709962479,1.337519074057753,1.265915722187597,1.260872185908483,1.478647814717027,1.652565864364934,1.659642066323542,1.690449365573103,1.754616216758361,1.916222297491002,2.014053905963066,2.005802374723509,1.911567999033768,2.076677530261654,2.251469680700418,2.454956115062913,2.500360460611871,2.566886224820516,2.698638133912023,2.742734295346751,2.539175068435029,2.216984837417981,1.929723718028616,1.710201052429463,1.478216907858115,1.644193457092181,1.673407675502289,1.831040413026171,2.011581701088323,2.035445034694991,2.057948176596667,1.956209888828496,1.84699799661361,1.946099280833298,1.934250708371119,1.999786435184401,1.998724939544717,2.242221861342815,2.277137026737845,1.998725378069276,1.753854713103445,1.991995074966157,1.987881858264466,1.441900659003823,1.379578559816229,1.134593123343114,1.084185332428352,0.9174081090555961,0.2589110874391348,-0.1702202233620731,-0.3561999002679997,-0.5859402338159415,-0.6270446134484885,-0.4641962102589757,-0.2868989066778225,-0.2163257223923247,-0.226732328741836,-0.3693033462361756,-0.6068382782021233,-0.7034826307322927,-0.9193522761937665,-1.28474284949053,-1.425008449496096,-1.306393397842013,-0.9843658830549511,-0.834605626198876,-0.7172111575836883,-0.3350923303520577,-0.2083820948657965,-0.2301909861592633,-0.2653706056620778,-0.5002658203356757
0.7167996668762835,0.3509399381404034,0.1087722348253492,-0.09020659671026116,-0.3235392498981066,-0.416460239225233,-0.4263036649177597,-0.430548409593945,-0.4467421948407103,-0.643795391116726,-0.9438198078545853,-1.213042343922994,-1.321303649851768,-1.170231277259519,-1.142840541716917,-1.208235696833255,-1.193585358960332,-1.099625897756872,-0.8797900860690714,-0.6439509058313182,-0.3910303858457804,-0.3658716176768608,-0.3343986939744442,-0.4862242673385026,-0.5585043316961401,-0.4271981236477795,-0.436655281840471,-0.1018354735494462,0.2338445565036822,0.3691487891644011,0.4698644664197327,0.3825220698882204,0.3005046734650214,0.3833867207566219,0.3829295409482795,0.5679722329102412,0.9890228381361457,1.336969227946985,1.548737280219132,1.931461993503544,2.004676490056001,1.826972569603859,1.868930089978768,1.909253202251506,2.08621924195488,2.360092013830128,2.326056551388424,2.333217370778649,2.238287389786839,2.18403471230317,2.109773439683913,2.23770527402516,2.380803180449146,2.364734543487322,2.332156195940222,2.22924253847725,2.209371120532488,1.934851580560785,1.797000787810799,1.692706765934484,1.790200800867493,2.112743889634373,2.225492555767124,2.282209943724486,2.226710880686785,2.371940283380205,2.641702988037353,2.774027604549105,2.583427132083195,2.359390232691072,2.636131104713719,2.696454135893187,2.724773625832714,2.791414135644723,2.870334686949515,2.977904414162412,2.955142611129951,2.570548933371545,2.111452393065359,2.088038350527821,1.836625381537775,1.726123650486829,1.73083513456472,1.693218154625003,1.713374048872632,1.748555373206298,1.785163899665353,1.811066923817534,1.737090186533761,1.590261118469082,1.57410651372872,1.915400742369525,2.136820110251234,2.307739393941407,2.438977551481432,2.412063070475435,2.087206943360815,1.966594860115407,2.03180355201547,2.085399353864306,1.932996216448038,1.577510583798286,1.36462679438906,1.2523985392207,1.186017246315428,0.7542712770392299,0.2903915720057306,0.03894173346887447,-0.2828536418264057,-0.5027571967830738,-0.5357104611054455,-0.3464795630496399,-0.2018043208122101,-0.1485160602220698,-0.1779838339283349,-0.4231188409480967,-0.6454226126637364,-0.8926016627195706,-1.172381785234506,-1.344259501561805,-1.323078876457476,-1.032700086865343,-0.8507264564095119,-0.7207905343901309,-0.5087651625254472,-0.4604968963942995,-0.443983225914688,-0.4163974095928735,-0.4947398528302842
0.4400553336052329,0.07417412697046616,-0.05045472366746867,-0.08253296971714551,-0.1946077041252862,-0.3607088260513068,-0.4912971693687507,-0.5239592772498309,-0.7188067265138072,-0.9926336295538742,-1.072507514583345,-1.182907895639028,-1.223034601985834,-0.9524920891479565,-0.9428034894400655,-1.114455192192062,-1.090087522296719,-1.106566204733138,-0.9664776987281443,-0.7440887049860818,-0.5289455773739608,-0.4640374361136736,-0.4024064137677243,-0.4466922828278735,-0.4456790147669312,-0.2306031453483424,0.06710333260147106,0.30812490330123,0.4738601171984534,0.5545760373525768,0.5796368078851094,0.4308837362713488,0.5546791519088543,0.6715610896822104,0.7104189798376229,0.634199715135573,0.9039047948486418,1.235666144425123,1.554706279682354,1.917866023967989,1.854808602077307,1.671981287009792,1.777189728258881,1.762447300966154,2.01890666487661,2.169090596357152,2.244929994491091,2.313464479199479,2.206916946315769,2.205094835462521,2.135838153659963,2.260920203185381,2.380104270524854,2.374289080107646,2.443357696807967,2.641262269391973,2.56948574874618,2.198353876977084,2.268054673533496,2.436323385134374,2.463296687060783,2.599499365238972,2.876100857527408,2.918893903274569,2.952921902197562,3.15642491800876,3.425530525019966,3.328232553461019,3.23876900524728,3.042433141866058,3.012463555742837,3.116673960296642,3.019240021098454,3.099288219536124,3.1750737373924,3.182456597998045,3.101024359689565,2.769654334573,2.361169257263326,2.150113847050953,1.875332455442622,1.901076922595898,1.746905226244659,1.701646892712519,1.610798784993706,1.603879640274751,1.696433949241095,1.658782792710384,1.594423024134255,1.491516895821999,1.535260848678143,1.699104383171323,2.150901029553787,2.423562874752768,2.619169865697624,2.591470778438199,2.423280787795756,2.200483450161729,2.18755111816947,2.152350083611743,2.008014301269511,1.73550694652134,1.651402569982818,1.479562734386197,1.312201010165433,1.093601204076711,0.8423838056232458,0.4600188163076936,-0.02535170740853332,-0.3190619246275714,-0.5812102880405227,-0.4441242281896858,-0.2994057130419326,-0.2675033116084973,-0.2075094283851172,-0.3905994881434189,-0.6838405720102003,-1.009260265608005,-1.229804898342971,-1.23244692008267,-1.166132296456185,-1.006055565402616,-0.8889715164321081,-0.7248821994369984,-0.65760438386727,-0.6480729231127432,-0.5661092010589587,-0.5113387208448177,-0.5146496244963489
0.125500323065891,-0.09960826635129322,-0.1806709829193008,-0.1859299051631798,-0.2941165259796242,-0.4252570429250244,-0.6496684972039635,-0.8915918352490473,-1.041677239920132,-1.202557263652446,-1.347925413326634,-1.382899479384579,-1.280926247627741,-0.9923191812329279,-0.8771972214075443,-0.9091900163160596,-0.8799805652733117,-0.9453841753912352,-0.8518357428101491,-0.7359674741660658,-0.6316194358908439,-0.5182000188445732,-0.4566635880688225,-0.3921426518373912,-0.2499017735549988,4.863931744550354e-05,0.493997080662261,0.7841790902513459,0.9711208012143915,1.059878789628415,0.8837810050464866,0.7375743258002289,0.7524368938234434,0.8810082706620417,0.9904952162810828,0.9571582174821378,1.037970981400876,1.314674595009629,1.505340728891479,1.770365778064176,1.774766116430617,1.723404610603996,1.812447657925206,1.782317074575259,1.960052157599902,2.161400588637004,2.101831945425742,2.215189613393695,2.167192949167236,2.199185116140128,2.321398500198522,2.487946964126827,2.509520902303874,2.557827614006473,2.540524841467489,2.835023998854703,2.860430533019995,2.604297750913676,2.455026560098639,2.624679962506073,2.783796124976084,3.100585558963278,3.313574857807905,3.399438312279412,3.511380512795408,3.605297416162743,3.811364239221446,3.799361302234758,3.599360336269442,3.45438182708327,3.474460083545811,3.400263782935951,3.387103079805958,3.27274242401504,3.218035075696837,3.239261926141486,3.222322760878408,2.974452263168216,2.610789128780099,2.235675241187637,1.976913282720848,1.939701935297599,1.935593445009858,1.818361201305,1.680836365143758,1.604547980749721,1.714648771428972,1.666724392708403,1.41052261206937,1.337792423544275,1.524793398239852,1.72344756621475,1.90131814486286,2.184610341655902,2.494221694965816,2.684708806026099,2.369611914062014,2.248934694933758,2.219882966286132,2.142627008593831,1.863953499550606,1.8466401396656,1.822466137716686,1.766128605754608,1.708194983461172,1.524440531503442,1.22146480719962,0.8295189443853228,0.4566063052572969,-0.07752469546923907,-0.3631951402159746,-0.3916495313346064,-0.3487957725625264,-0.3731189165936689,-0.3719230152624845,-0.4798597116181049,-0.6757205294796265,-0.9578715617136244,-1.206996432877192,-1.135715354642293,-1.020977239139085,-1.042257446934052,-1.028388310579992,-0.9163894239918241,-0.7608914835852381,-0.5727132574855728,-0.4995169743401593,-0.5649970355859295,-0.6630508940526912
-0.02093606927016778,-0.1688717105312506,-0.3125161438655616,-0.3344469335581706,-0.4655146826053061,-0.6164869437657521,-0.9340838455621532,-1.339800950423971,-1.487331217014747,-1.450055701098391,-1.494178142302188,-1.521811705496738,-1.399527289178652,-1.158928690932279,-0.9494632949162606,-0.8099649288298703,-0.755833774170413,-0.8234841772443761,-0.7163835226959393,-0.4916783988634379,-0.3220663235255555,-0.1970264418294989,-0.1823418843877542,-0.03833493677045485,0.01143477314409577,0.3051013530290697,0.82433405227068,1.255237148275657,1.542027812343497,1.435729984373584,1.125985942285856,1.021072303695754,0.9460291830871723,0.9791543193912624,1.107270727870524,1.153154056578086,1.321593440088124,1.619865052483159,1.686757887760264,1.805510795105073,1.802497143806222,1.791744312922744,1.849277552420973,1.776508248651257,1.93936544244347,2.065893148466677,2.109358408602395,2.286985887475723,2.244421982752691,2.245009588922003,2.43666861813769,2.675922752096032,2.729023443445647,2.699450185266494,2.892544630420988,3.03268143142552,2.973510311562294,2.883414373224888,2.778428929466216,2.634399918675346,2.860717454198785,3.079155409927465,3.190320177343352,3.329964184602393,3.68525824569668,3.824639261420908,3.887002129351971,3.92609534890227,3.942367564956994,3.941342667640425,3.732593325507015,3.530800063293372,3.389981533756579,3.332285545141911,3.222991367377342,3.256748611683923,3.333371274188447,3.148738003266113,2.744105102117266,2.477733128256755,2.209231364370705,2.070636622479095,1.872540648876927,1.811707854614521,1.640231497391967,1.523517205283172,1.649763333204742,1.77793229353853,1.606146029906697,1.428849001669863,1.613653965757492,1.811330392451066,1.975031719678658,2.147813387625754,2.445354911792035,2.504784503411081,2.373537595405106,2.092085753668138,2.101386384104177,2.176990718324165,2.118451335875879,2.111015601846354,1.978180639638357,1.869524345932769,1.835576076951803,1.691936700810587,1.5616717225807,1.133870613350718,0.7541543650018168,0.1892092592746297,-0.1177131369433833,-0.263986846486083,-0.3559370419924767,-0.3622799229831623,-0.3416974727884341,-0.4582976816331872,-0.6162406764975916,-0.7867531375421295,-1.01731669090394,-1.049359026999285,-1.019991258195633,-1.063140640238509,-0.9900038663439994,-0.9800547373274335,-0.8231258321878619,-0.5959302386787851,-0.6129322415351798,-0.5283944698015994,-0.4916468112540462
-0.1021306759403548,-0.2446084088195215,-0.4813195342753103,-0.6196054938113704,-0.7280013865093637,-0.8560883574246699,-1.100270144324994,-1.453512993011221,-1.546201392310907,-1.546195406756807,-1.497902173319738,-1.465005742407219,-1.441891475268443,-1.205342767029208,-0.9149936474840148,-0.5675455845707832,-0.4158679982299306,-0.5383593319162887,-0.4288275807303683,-0.22117773816021,-0.001707419044943925,0.1863608109297483,0.2756892478632459,0.2240706788144418,0.3045532686344581,0.783042955716855,1.407977706724585,1.624959627493713,1.773555819967062,1.519219468158273,1.278388741069724,1.164454406169223,1.153877982217665,1.162134754313145,1.258081999842469,1.299442462815548,1.608785950534608,1.834136413485915,1.81245282534522,1.878925808318912,1.876932137951308,1.812636895070684,1.820464544493649,1.894589372444702,1.99298954233036,1.955545180705692,2.01586988299857,2.191503468040178,2.212908612554878,2.187225451616886,2.358506266075644,2.52858619712207,2.732617904595561,2.866499374935644,3.095389308432689,3.012887119458834,2.932970660767023,2.933948335417607,2.945193194148313,2.823509746359671,2.845238493142022,2.999784432792277,3.12266024510331,3.35894974024834,3.703115323436573,3.858216334049638,3.814849353520229,3.889861293465976,4.148789037192188,4.209962757953861,3.897791365370382,3.679882797739949,3.506619677136868,3.410422668578938,3.38706719749514,3.380974398790659,3.350008594479783,3.202699877522659,2.908244564301383,2.658740780597508,2.349543694252562,2.09590541659777,1.837981898903568,1.878596110193932,1.656124151509325,1.637007366347733,1.696271705928916,1.820910094651594,1.828727838723115,1.666984955871899,1.668892764715275,1.711146693970261,1.630309942924919,1.981147118053229,2.255916261823581,2.475121167402729,2.377913313173035,2.163098312510943,1.959064435152106,1.945779717173731,2.02784970527768,2.146143056613862,2.145753478623238,2.001226956625178,1.861699192370871,1.705507781909724,1.392551178930207,1.089612900842207,0.6427555826351224,0.2082391200925567,-0.01632411534720368,-0.1947113499651401,-0.3483429291724673,-0.3947622907717417,-0.3007161892198574,-0.3839575321754718,-0.5127837627193728,-0.5758561169453664,-0.7574417893806251,-0.9082141621960895,-1.040467562269967,-1.116177725203706,-1.032305213549473,-0.8948499631686784,-0.7549061925018168,-0.6672486431829765,-0.5663363683920309,-0.3921481844761988,-0.3694976288576299
-0.1558351529316767,-0.2363145907235401,-0.5031377834473636,-0.8642249525116329,-1.095217120452166,-1.250285184556998,-1.450555698559813,-1.540023423529821,-1.540533544234249,-1.52849213988108,-1.512944292979764,-1.419108845634897,-1.328175381869789,-1.033488517673876,-0.635640807359201,-0.1889248941328897,-0.06271945405779167,-0.2383350519857688,-0.1242361731068846,0.003169741851455604,0.2299575282420612,0.4945743053382637,0.5005383137940986,0.5072128760773212,0.6698349416819886,1.216281515158464,1.665371302202633,1.751099948716312,1.724865002718551,1.592025702345081,1.334915925782726,1.318838773907214,1.286295887885627,1.326375087594706,1.415071612666492,1.452958225499339,1.757334377064435,2.03019273401469,2.000095612533674,2.028208439575753,1.99885795940606,1.980185110294841,2.080037892133717,2.13656245012728,2.015821115132187,1.917292242699292,2.056101517245824,2.158119412948567,2.204467879535684,2.272348378830801,2.307917188915878,2.379649375671737,2.597326707518429,2.793613497649468,2.803310487516334,2.710374380841526,2.758728071354593,2.770482022067365,2.843895958516441,2.942599499781173,3.002113504270445,3.043471654761927,3.171612131219449,3.44746853334139,3.795334849470507,4.026421340728496,4.002433104723788,3.944688310617531,4.131684165219703,4.385055781893472,4.154298295375532,3.937931813231712,3.758905224990232,3.551656666073264,3.438082257843396,3.391343663516922,3.466332196349224,3.211449874030313,2.973362419416988,2.755642442601891,2.305385929758065,2.064878608679125,2.082303102465075,2.133090159289158,2.028686562088,1.92345707712167,2.008836424315826,1.998697657829473,1.948111476202455,1.774245061257524,1.705997817932376,1.670737794152359,1.585830016261722,1.868040813828936,2.201269436511529,2.445417047873798,2.32617679772073,2.083505054984413,1.924476151277844,1.845480053789875,1.971096123045559,1.940315263837301,1.876484873204205,1.981860307358842,1.708768055639625,1.489291278740265,1.215825276937573,0.7116377882298421,0.2614035309754658,0.2028480156549577,0.03178046175653973,0.002847598416841346,-0.1175657653436885,-0.2616813878252031,-0.1525189519394168,-0.1462650079787411,-0.235160301958329,-0.3962302277297504,-0.733891985020085,-0.9016725909484328,-1.052467849420588,-1.085903191895938,-0.9755865838225236,-0.8036655858677317,-0.7142128711095517,-0.6292580619694286,-0.2861644181671266,-0.07155575101713504,-0.1156061468248103
-0.1863124192215431,-0.2352303605074286,-0.5105395497771497,-0.9955558737967195,-1.346376284594437,-1.516926065533767,-1.549525201284045,-1.545352048822656,-1.529266841236851,-1.514487497646758,-1.501829165979354,-1.418252580971668,-1.092943486135779,-0.7025146166889362,-0.3564845419535088,-0.005903204328482625,0.1780310573384981,0.05588098378600603,0.08872553420661417,0.1554234843893521,0.3343032456825142,0.5442497114224283,0.6165628700349499,0.7231750004817047,1.012956792806421,1.358464725426764,1.549058744602894,1.699201034641936,1.721185070969527,1.68164098981923,1.493345879372598,1.504516969302934,1.412371360316083,1.437607697009391,1.603667184635247,1.752361304935732,2.095067673392335,2.311311141367698,2.302559853169071,2.261072220406282,2.144054449972448,2.206775651966132,2.193212059191091,2.251295347123276,2.128136267383665,1.995415067576828,2.075101774815768,2.051813916695654,2.072383812305364,2.166619156415753,2.251557725733351,2.239755159288394,2.404162905277032,2.455084660013557,2.481397208889256,2.589227751125907,2.748618180065401,2.762198791280328,2.910563021458385,3.268895985537132,3.474131007342416,3.505284107485058,3.448154120251583,3.724635405278705,4.11816036634332,4.387433483920753,4.461217613477254,4.428367476311659,4.512214144461937,4.517555185234264,4.362232044801478,4.090927611477066,3.873818208080858,3.780492305433315,3.539245177339034,3.373384218095425,3.284191599393695,3.204955680267571,2.864345295407326,2.571967115016968,2.316974153876781,2.212839123225581,2.014017807272491,2.141294005708162,2.199522057601067,2.0453746634243,2.171807450535735,2.050624277355145,1.918753163409999,1.742307841422915,1.530294654517211,1.466647512830977,1.570444934753707,1.819567411642842,2.002872736917041,2.239928505245558,2.181864739135095,2.172777142439362,2.108532535980118,1.880026915581187,1.917880158331846,1.93531377374495,1.862625282295044,1.794994582585297,1.524757495270174,1.302662463478231,1.104284471184917,0.7410876839870558,0.3151931977407045,0.03574979414641358,-0.005530331480910505,0.05843949249300634,-0.121976390496166,-0.1657461491024282,-0.02012572723147621,0.05309419955004124,-0.04817391508779251,-0.4255654041990635,-0.8478237232701843,-0.9793502640579359,-1.036870431736927,-1.030281377257894,-0.8348047715160173,-0.7123796319702786,-0.6740636617576462,-0.4862407132573379,-0.1024714372437627,0.1267535035207107,0.04970996541564074
-0.08053258753412887,-0.215725030787234,-0.6204340100821353,-1.183980767469379,-1.490579476982043,-1.530492783745832,-1.527242461677178,-1.527106591973029,-1.515063207174103,-1.502721477277766,-1.486877265340491,-1.478022199237065,-1.17189920099658,-0.6300367935392829,-0.2810727669027038,0.03336091276583192,0.4058382265087378,0.4150254845283901,0.4010033343095605,0.4398781264966241,0.4686100938979157,0.6515406164710862,0.6939712875053293,0.8638910993866451,1.244181004068452,1.532208791413327,1.608870439998549,1.540684996998902,1.643760906871157,1.548811468826474,1.569039912265834,1.67633247957827,1.600256478466501,1.598178197931279,1.868405468008768,2.052293160755514,2.467180728039577,2.66784011533015,2.686188056297688,2.637571191922079,2.599834871503858,2.490036551708619,2.368627357251157,2.513990774234135,2.403031014022214,2.082171712182384,1.99381978111812,2.017099859167166,2.065561347901878,2.264271081815459,2.340466029311323,2.296371727374315,2.29362674824502,2.328470909025702,2.493543998035424,2.728351458938333,2.896890695373698,2.922601873402513,3.284900812108106,3.620924153935245,3.781915864592738,3.955237173069579,4.049622119613684,4.17850004866359,4.553244062873335,4.796418134340452,4.861050854279652,4.93691456911175,4.960795268114915,4.879343625821383,4.736836143122104,4.37326116492843,4.081664987909035,3.923480237035295,3.802576470353373,3.534144856682984,3.382231755171514,3.142361005734724,2.820876525636438,2.483688846675732,2.397318505243622,2.35892407531466,2.217770686768092,2.271477409527454,2.178552031549069,1.952134266252939,2.049195073806636,1.880906383502194,1.723470752365419,1.646293633887959,1.447234206802492,1.273498751941036,1.334916458991592,1.653661938597504,1.900141411159653,2.15978249485488,2.316069711373876,2.197111955354039,2.066105237120631,1.829190398114486,1.80692731917297,1.814950580571296,1.703535295931194,1.66630159206587,1.494116735238884,1.279341870098159,1.058563301844627,0.7930078485805716,0.5224796091624815,0.1966063175596174,0.0246319845991011,0.1606209465683642,0.01937765283091542,0.06273204219248307,0.1590622139294195,0.2080720529168227,0.07359631977815867,-0.2697890736355529,-0.568585057437814,-0.881637786285993,-1.056964967598034,-1.108540603034428,-0.8656342806643866,-0.5702290848885337,-0.4257198887967426,-0.2666316856031539,0.03204832884482348,0.198023448354431,0.03214409597077358
-0.09065811506459762,-0.2108900505891432,-0.5403218981284175,-1.07128157325543,-1.453537283221513,-1.517296835990496,-1.510413045446282,-1.505202139833588,-1.496933967848356,-1.491158893228826,-1.474624816347064,-1.464431110295317,-1.242764306701169,-0.6857200892644313,-0.2493818643417526,0.1443968116656981,0.4777340375539278,0.5375736750754333,0.6121120669254227,0.6736181920205898,0.5670390731552462,0.5055180983534263,0.6629117610895208,0.9732565709834039,1.277249221205267,1.642802616590151,1.785642273557531,1.64588016576268,1.50204976439584,1.417902890214822,1.526426912664889,1.708767438305585,1.754706252881736,1.836330661846163,2.061793084681246,2.325524883964579,2.678270366463121,2.944761752529145,3.068134325605207,3.160778224913016,3.146909216393117,2.908930389679599,2.689921568611251,2.739103914794206,2.73736911729626,2.334007707348751,2.162559115972781,2.212749902993369,2.406617309615759,2.594112560364439,2.617840634487019,2.476141554307559,2.432886853046916,2.503672283406889,2.712493080674878,2.993288848465107,3.189520669818156,3.299931031680663,3.707165235626707,3.845476434292018,4.001211657553084,4.416017711947229,4.607586572268688,4.731440886018051,4.935623490528807,5.188933845310584,5.29451245683181,5.273589452992411,5.300616000141456,5.308918798546227,5.143733119812229,4.877432830496167,4.497951116824852,4.377990266000948,4.152837537467787,3.970945628716292,3.655738456233929,3.388299210477017,3.007812438952346,2.654882770634003,2.440486429235722,2.412616146245325,2.400527944969974,2.416224030657273,2.212220429926354,1.814385494281955,1.833064076441611,1.710918044493425,1.515504458159746,1.471685878751079,1.305068454624854,1.132660258956708,1.093256053741155,1.346412487782296,1.750310802741015,2.041777503764532,2.059336232756585,2.102639914058873,2.003711743071912,1.752464016531451,1.774523997950041,1.741254823656079,1.55401397392704,1.513155895238027,1.622776802699371,1.494220024034845,1.218083330536786,1.040525485254858,0.8410390711446757,0.6063904211793631,0.3754223534389637,0.3017135235733793,0.3001100990162425,0.3128449955708694,0.3348866370647424,0.346784125929621,0.1274009630969863,-0.1588309829384133,-0.3493883380431918,-0.598823139967211,-0.8175897964194196,-0.8759005415410287,-0.7165319752884659,-0.4831341278044964,-0.2712400385630211,-0.1337160404299375,0.0002532326319418798,0.1457786470291711,0.08008802184796815
-0.2995782702131493,-0.4212685189613622,-0.66221065407697,-1.007616314529712,-1.426381066310588,-1.496449182871356,-1.485015733355452,-1.474526636017889,-1.471828144461959,-1.464236173181949,-1.460467095174605,-1.447337528570703,-1.255039250374396,-0.8164302594128983,-0.397243674791947,0.09848610703132166,0.3721129612637218,0.4408948652670053,0.5522500211113017,0.6425294381482199,0.4911469639175893,0.4855886394953907,0.7269376481828389,1.090221785167967,1.344169399259557,1.660561405915618,1.85152984455359,1.909437605414366,1.694806419577379,1.526477478195638,1.698481049007789,1.688599580044462,1.87852376296325,2.064886905939471,2.201858310742324,2.575601153493619,2.898342073766885,3.101835707530135,3.273820794435748,3.43413190664914,3.461758539293591,3.248662548927572,3.049479332228742,2.891157212085387,2.999071647878948,2.705740279964389,2.504833050820061,2.515111397179582,2.697806988585562,2.961283439839061,2.963434823989752,2.87689828121975,2.827829189377999,2.849103802907498,2.981644360556997,3.229471673511729,3.493574303877511,3.579675726206774,3.880830391331723,3.970342253575326,4.239877521084786,4.845624329332033,5.106084509015217,5.178007091905209,5.344629453255203,5.537714983548959,5.57353346181006,5.505725951185965,5.592691830880274,5.50839883589776,5.410121275078902,5.320469768924838,5.099337036764931,4.893115368872256,4.602363855085128,4.137369540477106,3.774047588328826,3.586357727085594,3.223302712026687,3.054110509909933,2.867411861433867,2.568835949155286,2.517777526572552,2.555725800760976,2.170761330946709,1.740227063500807,1.713889444650136,1.67754319448076,1.430965275560858,1.266286286826981,1.130107724738711,1.073165696084013,0.9715475439450691,0.994823527075118,1.330041557544128,1.739688936017629,1.970698255975649,2.059975848042512,2.075193671215955,1.994502312051409,1.877740914928922,1.917091395857942,1.862296285733864,1.666334589847511,1.707250103386107,1.65759899722968,1.653582714617696,1.529615281668498,1.220277247108124,1.07948328837296,0.6547413944498586,0.4308830816306944,0.5178375363863772,0.5351588910764218,0.5144690840339209,0.4973562179747008,0.1818647941350758,-0.1321978807575843,-0.2574222306531747,-0.4131915720577138,-0.6787978048375138,-0.7861512828626775,-0.7790902878570363,-0.6972496519287883,-0.437540377577444,-0.1044413578220043,0.05770403885875527,0.1174694433393673,0.07270896734422089
-0.5182087305398916,-0.5991974496050252,-0.7312464047487519,-0.999414347166078,-1.302262018866773,-1.450487702224068,-1.461340735785998,-1.451635405477948,-1.452930397553801,-1.447251526570393,-1.448218417827055,-1.437767846623731,-1.287847615788284,-1.019606588582998,-0.6657875617191958,-0.1394633178842811,0.1933486155407703,0.3102321206392858,0.4901384709317982,0.5924690809467511,0.4473165088326604,0.3655093407153442,0.6804429081423898,0.9839744026859196,1.281871027118034,1.617633980744934,1.790551530614217,1.991451290485556,1.830943658298698,1.651414503689896,1.619531953426305,1.674234317158387,1.686079079142273,1.966186338039778,2.206103541675238,2.612583801621871,2.975237929468426,3.239622640221863,3.404018761701841,3.516476875400702,3.499333482642313,3.355512912730744,3.250991497515662,3.053847581002589,3.162542174297103,2.962912761497609,2.746549489561733,2.658053780900908,2.8850792539046,3.177173722555278,3.349759147943742,3.379662845198264,3.420597592581286,3.38078121530589,3.304945209554982,3.429631154709841,3.57374201337352,3.610647997375004,3.906946321847653,4.137611376463008,4.52561608641606,5.072674238144774,5.439508982416999,5.64392893465072,5.574734795612754,5.658109616682978,5.657867511888037,5.553550700326261,5.658519244702854,5.576660837679726,5.714319135323349,5.748623224002286,5.564323852566377,5.368465417863421,4.950098999494287,4.379635601152834,3.729877216539858,3.558345027829409,3.391899233865975,3.466181875104739,3.392861406202674,3.076385927560001,2.725140851927501,2.412299986042242,2.071671080299176,1.765162138209305,1.7608171147624,1.568627021986568,1.400476163973434,1.328392656875747,1.224011009754684,1.100447514072403,1.093486494211039,0.9907845719478807,1.119940367453022,1.602224954580305,1.89481134759548,2.102476297528686,2.168557931069069,2.18234004610156,2.199284969417433,2.190873405308129,2.178265712473878,2.021293259203023,1.947048463399286,1.850252787704707,1.881960799316112,1.817696360254285,1.606679620181662,1.359390409181126,1.037558595162308,0.8065875074183603,0.8513239784849493,0.7868299372304239,0.7793875979589778,0.5673072627247353,0.2161301758553272,0.05431154891081963,-0.1459162587332664,-0.4518484350137734,-0.7242672503765597,-0.9036995018161454,-0.9285598599224957,-0.7910314037041793,-0.5029348546276672,-0.1261300116905647,0.126363587522794,0.1758771283781624,0.09092173478354897
-0.3998959821037946,-0.6143854424540851,-0.8230225971922271,-1.072587417588799,-1.24362666830012,-1.426576539901941,-1.438802697728091,-1.433787711984963,-1.43556886571795,-1.431901502444698,-1.432831336308018,-1.428807733926668,-1.218424576168122,-0.9461986576858031,-0.5554295969380774,-0.2589037102047522,-0.02349151689093695,0.09841440850729199,0.3269017973713501,0.46388568352265,0.297720777747929,0.2497208900531284,0.5013690533845077,0.8647178996576619,1.052050730543231,1.406773106878144,1.652813755139555,1.982603943293138,1.849174269107384,1.721102032766076,1.686596112825569,1.689331628326468,1.720406977628561,2.090509912276561,2.33475537763704,2.650531517458512,3.004759753042281,3.284043204587192,3.492883941495959,3.600048417154702,3.590733567894476,3.476446968589055,3.300562578677955,3.400341922236072,3.331054641228091,3.164641094379951,2.937411680791483,2.766818446802087,3.081774961037791,3.41968370736189,3.682092961011365,3.798217312049943,3.984561154728281,4.112685632095342,3.752548481518566,3.635477103614553,3.725615114842928,3.804625682631679,4.125006951231138,4.345945182100929,4.611080558324093,4.973143996758794,5.376183255584355,5.659345977063785,5.478377940153704,5.366425117963494,5.439641070603841,5.392082858230459,5.733716749676383,5.891089987546379,6.079404837537165,5.948733932727929,5.815222930409817,5.562111555823157,5.260781777720777,4.641440685042628,4.029408160733537,3.729226461305468,3.647511189842108,3.620189640877806,3.565607696274908,3.452804315965925,2.865562228253069,2.343078501645754,2.080070509138573,1.765520130575601,1.662844733703599,1.560685061859989,1.468976294529562,1.36751729657876,1.18706764707061,1.01728926367068,1.043574694551452,0.9805556662073179,1.124439827780426,1.527324578286167,1.836090717119771,2.112895245688196,2.223788060687107,2.212233853054849,2.452622769513345,2.570452696547958,2.481419185044586,2.476030941810411,2.362538257189773,2.163343418315691,2.080026831997124,2.050264995240192,1.937027755543762,1.590152221626041,1.329767257343799,1.337254431278887,1.134767140315645,0.9327229659610472,0.9683666098862902,0.6821614079055929,0.3612863910473031,0.2160832590766494,-0.1556115885866249,-0.4376999326203622,-0.5805792581045186,-0.8440851902891612,-0.858308879713982,-0.7699807135346817,-0.595420871235091,-0.3163489145240981,-0.1039102476044169,-0.02189665830900794,-0.0950601548092686
-0.32099905669906,-0.7044064017872027,-1.085852567839141,-1.24351632316146,-1.20449039133771,-1.393684813302464,-1.420431516297587,-1.4220168622081,-1.421717918036644,-1.416172631525505,-1.417703974407619,-1.288736651703122,-1.059411188982335,-0.782782923290079,-0.4397818243040766,-0.3169019990300269,-0.2583020259692873,-0.08307126928511743,0.2225821565213201,0.4535326258983645,0.318101726251648,0.3143688551257243,0.5012450028402387,0.7471867252746782,0.9479241636479399,1.185143925462578,1.556182984077185,1.86523430464507,1.945721638626192,1.871564365538651,1.749443609403259,1.813710595511666,1.797940974375552,2.155770390213917,2.459645310343328,2.77951489868137,3.10992431747891,3.377449831610488,3.551866169389589,3.658986846523388,3.668049780087447,3.540712756884915,3.364955608835017,3.285527793081132,3.300650712315037,3.237021460251927,3.101614256111334,2.984711641607467,3.34232223321831,3.903090350264556,4.267131218161736,4.302142042243527,4.488244712190911,4.458292048773544,4.28671922830751,4.00501657240893,3.965534684487812,4.061997642127896,4.208943004450012,4.38069740525424,4.722860248395553,4.925850330185146,5.122798381621639,5.327449755888684,5.286355033284639,5.281541633230019,5.229358328982601,5.333697722682536,5.558922406902573,5.991016818697112,6.071591827183568,6.066956613716204,5.956087344689295,5.800773699784403,5.393010762353303,4.907428360409686,4.501754426723425,4.234630157030097,3.965021795270852,3.721857197071993,3.559057029543092,3.254370672730628,2.894176704302252,2.439613812117685,2.075697205909456,1.852886635289166,1.838341829005838,1.736596414304158,1.606647739827619,1.451193437738975,1.371472882516548,1.245797637118145,1.110105996360013,1.014648837208647,1.094260970490478,1.346592005177889,1.665887174744078,1.98659606346274,2.243084189492934,2.351338255072001,2.782639525541065,2.869907700297299,2.81711585124797,2.8289272323669,2.71795757214933,2.536302476040203,2.336825549458529,2.142795692490926,1.96173960238615,1.804352528092307,1.509851976114507,1.362204658190967,1.203826985571373,1.032745697242944,1.040641576643964,0.8184333607361173,0.4282266989107981,0.1613066558310273,-0.1399715711513225,-0.3923845547491173,-0.6188989779228656,-0.9764439298852261,-1.102882575001499,-0.9784117201816426,-0.7975542647201134,-0.5933844306378915,-0.4535182659353243,-0.4153715802394512,-0.4194684356454375
-0.3605780957099046,-0.6472418839626684,-0.9493800221729635,-1.143596527088995,-1.119027306122102,-1.242336188644587,-1.312933389920903,-1.403998196074428,-1.412091720202779,-1.402800541672602,-1.403632603306203,-1.197740088377669,-0.9356203573011602,-0.6980876966634844,-0.4261263393929544,-0.2475226779001153,-0.2179095706414788,0.002950128205163646,0.2909500253542431,0.3994479112733534,0.3101067171641292,0.410797864824777,0.4808779647911597,0.7789391688917122,1.025855358544881,1.146804388559558,1.518442490015345,1.81382603414543,1.882403096192627,1.989565124963618,1.820943542421737,1.816260274791395,1.879909834907549,2.119758647277409,2.512340149733521,2.88943607861455,3.247526536815599,3.48791802110109,3.616480500400733,3.666213410102942,3.643058003034072,3.481051600898971,3.301854493566339,3.258936915884143,3.245530481552569,3.276806302938972,3.218771110304635,3.364880001503442,3.803767452134342,4.243092688480184,4.576641251667719,4.769575104932809,4.74805153557091,4.721162924488521,4.606318905990296,4.287764684791844,4.033463655077378,4.159145131946697,4.261852094283597,4.405681689387317,4.585614776374123,4.858789816703466,5.066760537878729,5.168518589050104,5.121967684494481,5.040848898180248,5.0570409643912,5.176081288658329,5.467153689264713,5.842156060633655,5.991613026354316,6.057347480452722,6.065529528639789,5.932250289688165,5.62561936766217,5.132549082226149,4.86144349375062,4.551368849141546,4.094171355901526,3.797963348096709,3.573812038223594,3.245524419982315,3.060183971706316,2.711379394959195,2.19896553835743,1.990489055885537,1.954154975389536,1.868145130063434,1.848910737588861,1.613795711304339,1.534326897421623,1.470338786376471,1.23632594619974,1.000398644768555,1.03245235638179,1.332753373570683,1.842750549250433,2.259180348302179,2.414862269738647,2.499615308981141,2.709406547423241,2.932831592745085,3.01695746488047,2.889921818977042,2.722502198760759,2.542218591201624,2.356578081335183,2.173562815573013,1.993104122023435,1.822107155443178,1.569095528617337,1.411500105692991,1.066045840752083,0.9011939742710754,0.9427073542264068,0.6739845945812957,0.1255352532245219,-0.2145307036478393,-0.440285522731712,-0.6853169304902296,-0.9558955110554641,-1.201750832220907,-1.293907458191095,-1.150039582126678,-0.926735412444103,-0.7145947501530701,-0.5899400835096889,-0.6662923537565352,-0.6530395406108545
-0.324463535525562,-0.5297163545229148,-0.7095957586975191,-0.8376834859780862,-0.8696539654006122,-0.9845911425760535,-1.159398294642148,-1.391469845292368,-1.403481332516864,-1.393133386299585,-1.38975020948198,-1.130981799534957,-0.8502057909881073,-0.6868319960291123,-0.4420501965217984,-0.2423421160053072,-0.09607968090593658,0.1882459920728399,0.3076285010874317,0.3114325966151125,0.2754437342707178,0.3624760205725545,0.4946804351433777,0.8704221347940103,1.148904142046149,1.385296917190912,1.705276871622769,1.868590297942638,1.984690675996026,2.042823002019004,2.023018862551677,1.953922763434804,2.125074514128519,2.300048125213118,2.521146466069513,2.867793880027886,3.276266402310832,3.557815200865592,3.750421905494687,3.864397326636013,3.807228775598,3.657376178409199,3.377039912074955,3.131173071058686,3.201429047502371,3.272369735678334,3.368880382091527,3.618949268391501,4.16453258306519,4.583872494057347,4.830933724433844,4.99249616323353,5.128387531324282,4.888836753173467,4.75967874483767,4.372517476739292,4.108860682809743,4.324452888582796,4.390102135536837,4.385282008077125,4.442284988483556,4.790360663390509,4.872215287202037,4.912488522792182,4.813113757130991,4.811548399808292,4.773492181689091,4.961786113429321,5.439520280427473,5.60220816950165,5.680364127566336,5.959426097699945,6.046503328494347,5.802694250044715,5.653048471068512,5.35421068844562,5.123959203523917,4.85320158361799,4.29310937507563,3.816642151379984,3.488024405819418,3.407295668564153,3.196193021207675,2.923838611742473,2.526526938372729,2.236103420046029,2.108241576705744,2.11423033939109,2.104023497735653,1.821894379297321,1.546452759002675,1.481781814831889,1.305674415202843,1.049798794975746,1.058807336221694,1.514745677501431,2.002505682264109,2.39141743612571,2.503816140859789,2.585381738164053,2.778545076177701,2.985749108343334,3.026463111896969,2.909025504123726,2.736469958093346,2.552039979157408,2.365724544893169,2.179138755533636,2.002193190852229,1.831070612386384,1.556191812421924,1.069961398635773,0.6648313270457686,0.6908239931879064,0.7680663930087474,0.4631622359824813,-0.09700708614583478,-0.5163538277151095,-0.8136738620616062,-1.026920779366762,-1.193450536308693,-1.329719503568406,-1.436206841137159,-1.429858509899257,-1.334456202932655,-0.9752462493059042,-0.6879927569269055,-0.6376071168083046,-0.6834079243600008
-0.3582300588408178,-0.5551127731899814,-0.6992337527990131,-0.7136190304924654,-0.7810439753940115,-0.8418341788025894,-1.034377843423516,-1.264871440767917,-1.280864428807629,-1.248321401139661,-1.163629302261208,-0.9380890835684941,-0.7865757548079586,-0.7276285515289183,-0.4839987162740964,-0.3290577014705915,-0.1123359389577067,0.2059821624875532,0.1036859319342107,0.04827641430039081,0.1552442484277759,0.4383746697653321,0.693456787413671,1.075466029568624,1.292572591098329,1.449747154582252,1.732491448705807,1.920293368551158,2.026675817331312,2.185945880642838,2.060142850610013,2.105879947380578,2.264183292421577,2.500151685098825,2.657963567570829,2.840748612914933,3.321321110543753,3.619374927191391,3.823847535020044,3.965532236139694,3.954098147591602,3.814231772796191,3.6312390266898,3.331283706501681,3.232699666674578,3.18526000996322,3.348361218760095,3.690579302972572,4.132040039526849,4.715011708703048,5.114935974361444,5.381988678398778,5.391039591127392,5.135398294276986,5.008689485915308,4.507428632526166,4.476539632649701,4.56608169923394,4.461138771600379,4.376757842590646,4.569502049808202,4.818175828292038,4.749910353317397,4.74489261056404,4.806029931488935,4.961827490316181,4.893490027762277,4.980515937030946,5.252530762899076,5.310471433143114,5.585435877220158,5.808406473606529,5.751602874927014,5.713437013388135,5.661185579158734,5.42138530241868,5.427571974495843,5.092982264710662,4.389703313378632,3.854390322905511,3.654347318844173,3.702428828607036,3.465433543762148,3.183108124625059,2.744099065953056,2.337972224380978,2.103263278346408,2.032015529615011,1.878331774089087,1.751429898720102,1.540831890063391,1.44864978324898,1.352184286877585,1.10671810943729,1.312180139545529,1.603780752711361,1.864375554528799,2.317327334604969,2.522968064078263,2.686608056374519,3.01034784708298,3.14331147516335,3.064304006009603,2.910938357222766,2.739230454637614,2.554366204267707,2.369545429121119,2.18430550091675,2.005794033678617,1.8289581175803,1.270490882307851,0.7322246038715677,0.3946489131434998,0.3821493391220417,0.378273351618086,0.1314140419589274,-0.3254806714654205,-0.6135262988226644,-0.8042621883363699,-1.052541434949213,-1.219793673518457,-1.410952467338614,-1.429036350432397,-1.423377086539252,-1.410892632202031,-1.34118200158673,-1.047402278477295,-0.8481697863867583,-0.9066909278429329
-0.3667654214781078,-0.6260402348913419,-0.7788669432324513,-0.7366175279680006,-0.8369320592662004,-0.9757148095872463,-0.9845073072647496,-1.095632317593317,-1.241577449023246,-1.286951524371897,-1.148469252131364,-0.909652713416606,-0.7613932478297983,-0.7267129072697573,-0.5573026764718134,-0.367467297662712,-0.2217432373178685,-0.1440640669825218,-0.1153080456456553,-0.09393148622078082,0.08109941956688002,0.4114567347471506,0.935450830666762,1.1121458655174,1.299934983505661,1.38241284510787,1.420082197154779,1.678075696374039,1.943394303680546,2.098395204460514,2.084695301050769,2.213232467173441,2.459243772749895,2.75833399343023,2.950065295239558,2.943382071128378,3.173684990806498,3.498927895345344,3.737917632417131,3.827396642815712,3.722257394582761,3.603693357991344,3.619634642769255,3.556639987343741,3.482696226531894,3.292148711234322,3.445699625114418,3.794594729860578,4.265811340617522,4.950049766393906,5.258778878654616,5.515112335603013,5.535502572598488,5.357278682565349,5.042632744850712,4.738781415758718,4.613739547502684,4.707475120569132,4.558475750153278,4.431060912039368,4.547143360060006,4.693491932251874,4.582414745676935,4.6286493379618,4.906731784248804,5.076808691853716,5.0203942160562,5.155329138519747,5.193242511187027,5.318439573693911,5.42848754628185,5.59172067768101,5.613701936666571,5.535213006969228,5.568799254260144,5.551284911599822,5.584684989870233,5.098346215891906,4.560723237878936,4.182398609609718,4.103968780280378,3.980040888388744,3.726616575565698,3.310920498270418,2.903114583449715,2.422688085541433,2.114181281484423,1.79149029093936,1.557819851531311,1.460159818360751,1.282175313302186,1.32047568877827,1.365612467476622,1.382628912965864,1.580580461143102,1.632419771847337,1.707883973723812,2.073967715146035,2.385428191984591,2.735816037098364,3.023455316490554,3.144498007065818,3.066727750921962,2.914360044179388,2.73872888413345,2.554851115762127,2.36342478022514,2.180560752192491,2.001465118012754,1.696714283390539,1.082139434885199,0.6703411234675061,0.3037269632230034,0.2481232295583639,0.1845848491617973,-0.07806095141704511,-0.4450425203335809,-0.6848567898715048,-0.8390290479528149,-1.025980293962379,-1.246426236418594,-1.405155135701372,-1.407990440393297,-1.403212753981583,-1.404031189428016,-1.390323755925099,-1.234077976340454,-0.9744451173408599,-1.052220323787223
-0.2828728374575967,-0.5775271832066837,-0.7076780665328866,-0.7503766274309019,-0.9786461887666966,-1.247307329888212,-1.113832162152191,-1.024451965564812,-1.209785269730737,-1.303269911461504,-1.106558210245355,-0.9816878420993719,-0.8844290399682596,-0.8888743804716017,-0.8958560897930283,-0.6343422781179324,-0.5607233679860316,-0.564703472610952,-0.3023852460389844,0.005360365760755825,0.2619072177468441,0.4801283161915875,0.8132237959475334,1.039841017949373,1.13099851313515,1.122461619046336,1.119422216846409,1.298098958251996,1.538298085663484,1.684444910219046,1.884953522593642,2.132185956031972,2.514685046234211,2.834513709474947,2.956462804489696,3.04550404618931,3.092636315120032,3.350203692725146,3.535907722010764,3.584609869905658,3.442634081407588,3.213583936397476,3.412716159940393,3.436525600580592,3.301791157356918,3.335276936271836,3.602694518052578,4.023867960810893,4.701045781277648,5.145706913520707,5.278181934769941,5.342618589293822,5.601704830816337,5.335657508083036,4.917667238486762,4.814127827494458,4.621524191717411,4.666900401059541,4.595944527563026,4.506083796737498,4.534071583187055,4.616915716508974,4.566210358775594,4.563824594942338,4.673555866775919,4.902806282432215,4.968725642486348,5.025746609396722,5.08164359920894,5.162060321491366,5.252557572963159,5.349815925558566,5.397366311577581,5.395269913561436,5.573206108829372,5.54939745704144,5.524535668193235,5.386228727234021,5.00098638851221,4.78535604296623,4.510425081225513,4.276241001963839,4.003351054744201,3.653112316026398,3.206349238272593,2.531435607405311,2.033156466174509,1.635334533573238,1.387609971904057,1.299920470397738,1.243350133970052,1.297617081769168,1.356410232447644,1.457313538692555,1.487131913289551,1.609346045537847,1.772054263822295,1.991837204865102,2.452508314539962,2.766588057274629,2.947566950052876,3.140800307868949,3.069215512820429,2.919907917531812,2.743743703410999,2.556510354198511,2.362285334972295,2.112267684358928,1.694445606683205,1.373161590138534,0.806122125220373,0.4377034182777542,0.1378159934967899,0.1373851560535722,0.1128650773370203,-0.1824189644708678,-0.4754860595942291,-0.736891001499603,-0.9282757907986567,-1.082236227242853,-1.354309599443653,-1.407188277133103,-1.410100843006904,-1.417006388189855,-1.404889149584696,-1.314386087507661,-1.064984305264673,-0.8407752248116522,-1.010503243681391
-0.2941679405271646,-0.6146475808026828,-0.7393107729816922,-0.8619136772586617,-1.211512102625006,-1.362414580731202,-1.108375977614525,-0.9639740049301415,-1.178284737735817,-1.286388010911415,-1.078012569202836,-0.9543067633278765,-0.8356534892063248,-0.8428607488299545,-0.9834034004485214,-0.9076911863931656,-0.7602355333460594,-0.5836558999794714,-0.2576037724990318,-0.005992319821229275,0.3016898945531943,0.6015122385388105,0.7706965770174177,0.8871928051900302,0.9137021328528625,0.7918864460164309,0.8117052585717704,0.9483821904254299,1.095878956091917,1.184685825007472,1.255314804274876,1.642839430282134,2.165851782252734,2.631437607464211,2.82204815556285,2.939694991447412,3.042590624906087,3.234127536923123,3.261813836124054,3.167319141285854,3.051086632710939,3.020254090678142,3.155803014806138,3.24137367527191,3.204846436432491,3.245127455366753,3.842607563840902,4.550320678113965,5.127408639034233,5.369367431318993,5.479922559465743,5.4882667914965,5.520593197131937,5.306125597749461,5.029958485312387,4.899222027791827,4.635877479086883,4.735107296379963,4.802418971626394,4.684267991525547,4.799979936035948,4.733431456553632,4.559679659877196,4.46009046632317,4.627235730026118,4.802628944449848,4.955093031657781,4.934427248750004,4.839842509216007,4.930037522483199,4.946626100665937,4.972934696583284,5.093925555218595,5.240836021981063,5.338623448773726,5.452207187667081,5.527894677475629,5.448431250665374,5.247607866500586,5.047037176305841,4.822396232413966,4.540454402119231,4.266662549913876,3.932938638822985,3.54839908955545,2.959463590064237,2.262496153272111,1.722406002876345,1.366871773078202,1.232194577198523,1.19147101901162,1.14462894035655,1.245351855417462,1.317849436906597,1.322651425128466,1.497909695218995,1.79377004150585,2.027525304406839,2.293217603981722,2.698461542637042,2.855015184953652,3.022839178664433,2.861157601456794,2.664206162963858,2.583464203096372,2.450018076175493,2.247920608766429,1.879228025800964,1.46218062665968,1.185495228364351,0.6669858367746274,0.4597546707271132,0.2216650714311498,0.1323577662357156,0.07937214986087407,-0.1695467732980032,-0.5326234567321044,-0.7801623958644799,-0.9829758684897358,-1.173254186247223,-1.392186392178381,-1.410513141487922,-1.337352688438257,-1.213231899196912,-1.177641599103751,-1.128959763398413,-0.9278576658147731,-0.8712167139365878,-1.063922180769712
-0.3888939311991456,-0.7038635975539691,-0.8101520436174537,-0.8130810101930057,-1.098823675621139,-1.293216986092093,-1.103881779228514,-0.9377129466268066,-1.187765345737306,-1.31010616255871,-1.081278380324904,-0.8778047423237167,-0.6627653670458992,-0.6046174200362093,-0.8428277112485489,-1.001915417492169,-0.7981728113174225,-0.4929181668651123,-0.2776347751731468,-0.03825781601442882,0.2407529281538863,0.5472180200359515,0.6746859684075935,0.7515414710788328,0.7011314831371529,0.4294027053788887,0.4463203632248393,0.567255077744794,0.6689385311973993,0.8015567760904451,0.9486029411920363,1.463637373514605,1.896117559466763,2.40013953018888,2.632104250102481,2.711178070358505,3.050677892486746,3.114571276999891,3.066834866925552,3.022031341099764,2.945298630247408,3.021162499909335,3.138583451016111,3.161662895657542,3.151063219185592,3.300546031909332,4.02443465585907,4.908484130114152,5.335082870530049,5.589818364417503,5.541587300746181,5.550837895042016,5.454914715392004,5.424280166166488,5.206441864593753,5.107270477664561,4.998446230599149,4.872612810795923,4.945595609378544,4.822152938013616,4.94318042555651,4.880387666362037,4.697962235369014,4.620355060167434,4.622518967642736,4.710968630039803,4.856151947396914,4.959152032290784,4.87133802272311,4.842685919931935,4.768487288128389,4.668510097395876,4.882224610577884,5.041020505218065,5.18747877853031,5.385165801845882,5.552920576424391,5.494924149123844,5.373266817273367,5.208937062874248,4.936158974515525,4.630737841073015,4.20888895737103,3.854730343414311,3.540371897490173,3.128955673925436,2.333731504260859,1.929016341087286,1.574694160978649,1.320556290502417,1.228717240614305,1.060679684219755,1.162457670508771,1.330326866234134,1.316784132500832,1.30822541914931,1.532831700694169,1.781401803506597,2.066253376960157,2.494840725897105,2.722624205068052,2.839613308975275,2.729509289300855,2.613985314642612,2.539846355562217,2.36914634753377,2.234775322266891,1.858604281863133,1.418652601957577,0.9052512970910164,0.5973680909777896,0.4269711018579566,0.2294337331911812,0.1762519721734789,0.188968851282471,0.09182999457505683,-0.2499960118931079,-0.596650854500941,-0.9218082198487438,-1.236956008551662,-1.417988239235434,-1.408112798606514,-1.25096067798356,-1.011307373233505,-0.9181527458290828,-0.9526520948137123,-0.7611447673760332,-0.6695089028789382,-0.7230625151691437
-0.1985955937341407,-0.499454000027543,-0.6021259955590462,-0.6553661570196245,-0.944615433779771,-1.09008602519635,-0.9638914648331759,-0.8181681841337611,-1.045669002303097,-1.237688774810392,-1.022123737112847,-0.7128888658674798,-0.4844429786362221,-0.4204244349820559,-0.602539184533014,-0.7382064080930846,-0.6157451329874053,-0.3565289319113859,-0.1541513826319528,0.04148125313101429,0.300016220273114,0.5272931692867369,0.597485753827666,0.6206613666383729,0.5897831050838842,0.294024096537023,0.1487523669628935,0.1210809141883367,0.2589138374533482,0.5562417267893249,0.7482373944663187,1.262710803219559,1.787563578941896,2.195917806672989,2.300207383449549,2.435186465963132,2.738949527167107,2.910796309341277,2.905974229099005,3.037055834749979,3.138471215710682,3.130059559743199,3.231585741695814,3.051332687745903,3.018737943264157,3.327654837865628,3.831444617930282,4.947533627629537,5.504533209254219,5.640507385666916,5.570766044681799,5.524339567953886,5.589230991327256,5.367427700376194,5.250760789204369,5.304621660837288,5.179555922938255,5.055251755135092,4.974890985303242,4.892087616821672,4.878184539878083,4.729851332929726,4.717677924776298,4.688827639287491,4.621204781087259,4.598639940992808,4.695435486980779,4.73726241807657,4.715229710084093,4.737693303062451,4.796113825799623,4.685338672368828,4.742478201917084,4.885422181871002,5.000635015749934,5.260896802698482,5.446712702786838,5.535105320148993,5.552330360918982,5.270754129971878,4.879925989063381,4.459899206868057,3.964569590793878,3.646769924906075,3.380257496499575,2.966766596847691,2.430337616157287,1.943657144280734,1.752929943143234,1.561066813723914,1.307222619602335,1.171444996144729,1.13672398357144,1.220731783124286,1.364475004668658,1.364432796309878,1.431365987771967,1.601366739141796,2.008698723756925,2.487064756848266,2.769170005640749,2.850867596315582,2.874361129574935,2.813772354914042,2.722721400619123,2.52794592662557,2.278421168516184,1.820148379927565,1.358774154072819,0.7995600089564099,0.4421583203731479,0.3395851056569933,0.2828277735687281,0.2037271118594077,0.1357442623315458,-0.00445503422810567,-0.2827755480109431,-0.5771356133904607,-0.89576205334628,-1.24803804483742,-1.42080743372446,-1.329828041021428,-1.232220132794713,-1.161027085274712,-1.030610576023469,-0.8915652141330179,-0.6090124415069362,-0.3642131365469598,-0.3131443550495894
-0.0285644065013656,-0.3190952227796125,-0.4737998788239203,-0.5452073589247353,-0.7813417807775773,-0.8392510404037354,-0.7498334391965797,-0.6399049703527251,-0.8479775480315437,-1.083583799761875,-0.880640300693127,-0.5191504367337505,-0.328505133625541,-0.2011487502582249,-0.1848100279737182,-0.1463595476709099,-0.04097005889666316,0.03099735778928625,0.1423212396273293,0.2190632434048413,0.3481766024949592,0.7357700148098238,0.7665225935049866,0.5879881995183844,0.3986260032608501,0.1678660028466852,-0.05276394900961401,-0.2322238698151196,-0.1128170840497023,0.2520123126642569,0.7048278051902894,1.07441405647237,1.589422380701809,2.035847046268746,2.209159007953532,2.373315278717262,2.600531223583205,2.828939534428407,2.944318337235097,2.946929254474442,2.950477455506646,3.200002930689807,3.225612016786528,3.108021505354441,3.217454421981013,3.443936796809806,3.796921918507987,4.646879125003682,5.293013474302276,5.54519244509058,5.577257217504958,5.585470494054645,5.537462683270319,5.422797631870868,5.459777792592905,5.357198506877126,5.271933065308527,5.34668246469116,5.15972434869564,5.089827401140236,4.91915989482556,4.784457316931125,4.717895804326734,4.874146487184955,4.920005213718038,4.837323157349757,4.946559553299283,4.92862846256984,4.833581337371579,4.783301502908674,4.787883704170625,4.762611659391948,4.847670203250495,4.912806354273955,4.967597159487422,5.022721139226844,5.207393555807067,5.459539176062882,5.241255002372364,4.912007177747768,4.489727895926585,3.989236461780021,3.582433350078869,3.429117361963536,3.048640536039674,2.669730993420051,2.336941737714197,1.957804942040415,1.944761497153917,1.808723569047859,1.436094619453771,1.273859541097511,1.156557486812616,1.087323922718002,1.291239835102691,1.397712507580558,1.412695131336233,1.532802604148771,1.886243218774461,2.425928226665135,2.677687656608962,2.742602379939223,2.816302087460102,2.807411320167479,2.699503554337209,2.555056404230765,2.379112251268209,1.882293171662106,1.250828784279551,0.8269826951245511,0.536762363762163,0.199833889062542,0.07865292032936294,0.0489561387466147,-0.1070849253395238,-0.2311981162721488,-0.4295312227683354,-0.6718757543689605,-0.8878411556431079,-1.116674288562663,-1.184061442271489,-1.097031643074198,-1.148005902308235,-1.198650956668519,-0.994622214299022,-0.7874682343714843,-0.4867327538840097,-0.1412781969933239,-0.07624560363562927
0.295381277849494,-0.1072713737498478,-0.3985637886600634,-0.3918884341871327,-0.5591555404164776,-0.6867527018885389,-0.576782745341214,-0.4496813084409068,-0.6594034618207359,-0.8575632207962031,-0.6772122949771662,-0.5088278021399587,-0.4022072577618085,-0.2272515791791021,-0.08405372744425098,0.169752332459565,0.3026862468556354,0.3222347705303114,0.4150721002782709,0.4097293987505141,0.5449229152759203,0.7820812159408745,0.8712666953838137,0.7154410293503826,0.4383261819094754,0.1561534352153482,-0.1848939722518271,-0.3876427612017963,-0.3402611477412109,0.007771595903185713,0.5775399086057204,0.9237837205559022,1.366564980993032,1.752318571717816,1.952023614039908,2.157050361787622,2.487183499739122,2.820487094007742,2.96175187851403,2.97535599012138,2.850741796457205,3.110986770156941,3.216165010190275,3.161084593596852,3.24638936457402,3.429134260351242,3.872557095286314,4.619016642439166,5.264147204629166,5.486584896018256,5.542465691933492,5.542867152069889,5.613727789828616,5.708039473240425,5.795622229668865,5.505930384638838,5.189638483397307,5.318116728568802,5.408863361990381,5.262844135159895,5.039073143787516,4.875746562427833,4.834217955104649,4.916741342792843,5.016137866936177,4.967781818499196,4.858335839617057,4.924855394559784,4.943617709412255,5.002461372726543,5.0164567952772,5.029344673872444,5.092627365263672,5.137099418879806,5.04704142047979,5.009585981850813,5.124002403600094,5.148027853675215,4.990075594835099,4.458284118514743,3.863869892717509,3.421761844971812,2.988185720215546,2.903618254019391,2.730372204304815,2.446491431270761,2.366859702723247,2.049614047628721,1.934008328283062,1.898384346517546,1.609455539826279,1.384094103370904,1.343591076043678,1.271303736727314,1.360105329337177,1.457067132792327,1.583450058278172,1.74103078735208,1.925161327540639,2.255957936673171,2.54508918612135,2.701167044902137,2.765597701907202,2.767590866151448,2.72773978606864,2.574628860803118,2.395028159616292,2.012202789871375,1.302177969840789,0.8627647913994,0.39988543417789,0.02419969813532007,-0.1041892336458581,-0.1491399598734877,-0.2225900453771562,-0.295879182771141,-0.3504405587245127,-0.533529353874031,-0.7943561050538994,-0.9984084651986084,-0.9792617993847182,-0.9522401387005363,-1.157819115804768,-1.158129612457149,-0.9466893285988583,-0.6950958753610572,-0.2792973198900311,0.02186309827797811,0.03607299390299692
0.5159820280237469,0.1400494110981512,-0.1492442619919673,-0.2267772330789937,-0.5108603868278425,-0.6821663031357941,-0.541711205171242,-0.4256060698472888,-0.6205603059831176,-0.6888012926064668,-0.467965958539343,-0.3618799014346191,-0.2334021823462461,-0.1280238634756156,0.007985952047084841,0.2793109224357047,0.306429282629382,0.2841975380134921,0.4915231150604664,0.6583529139156971,0.6744276816298487,0.7169445322415358,0.7333254081127585,0.6308506536569094,0.4846517756135564,0.2530980070476928,-0.124806665228222,-0.3008377642044729,-0.3712848618575947,-0.2144765575624674,0.2594077562180897,0.7438026289788875,1.182727270744129,1.363835296013775,1.645452748602914,1.843540924152343,2.23455832165789,2.723021190650111,2.933932751941402,2.773151510752998,2.831182634105327,3.153794436105734,3.18330029546614,3.230089440770078,3.274018640904413,3.451255818345605,4.145221607408417,4.708933996213601,5.267965904355727,5.520160123642401,5.510593011778226,5.652121228137369,5.733507467099284,5.798063415417723,5.687872452031485,5.581807195792794,5.413617858317773,5.299717216132747,5.320174995400064,5.298876133467818,5.34418530359167,5.271517456119036,5.236995376983838,5.331585033267974,5.38489659021132,5.347138286976699,5.121202774874012,4.995391565302213,5.103469268281512,5.295916093188072,5.420158889971172,5.455838705753509,5.432981442875935,5.406103024557505,5.239051084571813,5.03367646867749,4.904942220142184,4.819008607104606,4.591642501407911,4.080730146936809,3.400780675857399,3.004952769252184,2.645156689737902,2.559534736236609,2.519389465605991,2.296823530220494,2.281648250789212,2.273861687721715,2.144205244314194,1.996266837722299,1.839556437398522,1.596806274933041,1.583984220018889,1.614982723968779,1.720351269872563,1.784078607125185,1.880425608074661,2.122295044791475,2.219832385204749,2.37974865628478,2.585213460719637,2.740049251802844,2.729248950016245,2.633550921399055,2.69063343009091,2.579551000542665,2.406514069084452,2.053947851153966,1.368202712466592,0.910706485982944,0.398948387405281,0.09076658040915747,0.02487709601034915,-0.1303049788023704,-0.2464936349032399,-0.389699550458798,-0.3750164170044687,-0.4051535869882189,-0.6575173676768961,-0.8891946283343448,-0.8219757608867702,-0.7288998374026828,-0.9460397619029454,-0.9898329580059704,-0.9285374486862406,-0.7015627930693306,-0.2090737501842964,0.1755303984382793,0.2548301997795736
0.3895769719267918,0.1035272421421948,-0.1103485189170527,-0.2144504730425042,-0.453406164690255,-0.6133489294931835,-0.5488685466155746,-0.4370008413200976,-0.4701599338453983,-0.347343936208255,-0.07713283852405339,0.01553283769793795,0.05435835770944775,0.1303942869636351,0.156522094138685,0.2652112835205664,0.3446643210917948,0.3031318956984061,0.3859174615567205,0.6284150591124804,0.7028005520691882,0.6990850864768844,0.512852402001627,0.4322992055850589,0.3302971091273709,0.1641002471097472,-0.06487380740291573,-0.285770732922267,-0.3397841452789349,-0.1906768560591175,0.1965038873845686,0.5912541767387133,0.9422734466313309,1.224417854650646,1.425333781099315,1.636261580312053,1.950809750750298,2.497011849205488,2.685323175610084,2.712098173641828,2.873279758664991,3.109345118347935,3.311889079776845,3.316245511016925,3.357445390215586,3.791118522879775,4.292829740149389,4.729201286509265,5.129403146160136,5.465637068766857,5.636819043982655,5.727096649965008,5.571757406854967,5.517065387318333,5.544802569329881,5.648970678404919,5.616902442859057,5.443197292056725,5.420835277979669,5.534483070332589,5.637196115282686,5.655032291222496,5.693452009290773,5.753902366970347,5.745559737454108,5.738293365267293,5.648864427926286,5.44307637907866,5.523457821385991,5.57519329185837,5.671117678807023,5.678864720777431,5.601338822345765,5.506930714302102,5.219640584057593,5.013381127737218,4.988832598740386,4.788042089684972,4.1795554687329,3.607952602857157,3.039309052692298,2.620877553369695,2.323857004611511,2.23822840475708,2.250206690973516,2.05425411058865,1.958208368792074,2.180528275928538,2.122196760291661,2.138769232560659,2.032470188661101,1.706994530091322,1.70357519461897,1.777496511070515,1.870947113649515,1.885736006281871,2.015196310269951,2.286549817311429,2.423568548829257,2.533020073961759,2.560571877665252,2.564040992823965,2.4771716183664,2.406984534274014,2.450316722487593,2.487899179383876,2.408744717001216,2.041254692773079,1.404226045378933,0.993700938920261,0.4144862532965903,0.2007738792049624,-0.01473544584341538,-0.2320587540208722,-0.3571436217748257,-0.4466283135797291,-0.4020689483920882,-0.4017040589428805,-0.4954435006040151,-0.6994868695064022,-0.7362087195734941,-0.6187795355948497,-0.6998776131083487,-0.6381330852571477,-0.5716149521742238,-0.3481614450283169,0.1114805881743882,0.4213638450895563,0.4286115465485905
0.4906061177285518,0.1191690771962983,-0.0985157300674197,-0.1885776409391612,-0.3573296529177503,-0.5308576802184506,-0.3747838657665197,-0.3576986085627853,-0.346700375053027,-0.08751507083319326,0.1771027501064213,0.2755114096274859,0.2349496453440563,0.2707512490343892,0.1660728572707268,0.13781868661783,0.3158876082962155,0.3578407554002997,0.48023448660082,0.6946614086350307,0.6341579278707178,0.6520227994450927,0.5448104206607683,0.5169293923234902,0.346903258884428,0.2475464381721008,0.1751697816415387,-0.08852784332707581,-0.1280036313183165,0.1102335004475321,0.3395125015417435,0.5180222278710283,0.7798509398126408,0.953802418312771,1.030752651600196,1.343011128333011,1.77213892447804,2.273596960832762,2.492102291764216,2.703287061519625,2.993124401345319,3.32322422449989,3.363021548474012,3.392374656739437,3.323706064788707,3.798315543176772,4.302726022902801,4.749693110738318,5.11454242349261,5.386716395410693,5.580629502717996,5.683486112075271,5.554090005751759,5.463121113075909,5.760432537164497,5.807613282398371,5.764471526684197,5.69454947543352,5.627909035184739,5.719337654648998,5.999078837166453,6.260108536054343,6.114001629150289,6.051407577908607,6.030469287354686,5.983224110518008,5.851670085056516,5.885955123107092,5.885657450504516,5.818530944764682,5.89090350577538,5.811219924863128,5.701206199642161,5.664898993591736,5.3343926899903,4.991351392077044,4.86885949575351,4.696101947557415,3.982642840440095,3.251910760860043,2.770447271087736,2.403578252024587,2.208692969757409,2.131016811696601,1.963759546443421,1.725879876869609,1.656198419529944,1.833178157883937,1.939788442356329,1.959464954185411,1.856267698721292,1.574946485112645,1.775154849875829,1.915229292319105,1.928090445904322,1.880314303113775,2.051185358274092,2.25725876365998,2.459281843900789,2.588634023689237,2.522883388412717,2.355936232576866,2.395100931109631,2.348778383081973,2.305071725766158,2.464093971604584,2.324402960017545,1.909870385490695,1.307523474762442,0.8195860452462729,0.3065524331264367,0.09939423302874023,-0.1648944962059268,-0.4065190135280223,-0.5382458480981132,-0.6267550734617274,-0.5746342795103649,-0.6073561302555619,-0.5709585892871688,-0.6085013272769021,-0.6071796638382598,-0.4032845604896054,-0.2903644980947394,-0.06237466279135251,0.03992714870188119,0.1681948974474325,0.4806367017500472,0.6500467533057315,0.5489673722517738
0.4183191108232832,0.1542232802763055,-0.06458515294944581,-0.1686935071039571,-0.2808839217326045,-0.439381166636445,-0.3284405445453349,-0.3548213008944291,-0.3072783169621033,0.08152448238006052,0.2969655637915398,0.396526664194676,0.4064283298899972,0.2845181484407598,0.1576434569684884,0.2455958409009288,0.3655365281912796,0.4135857849805964,0.4769073827405756,0.6534250206265628,0.7653447495302713,0.8842585459570456,0.887891205516272,0.8254826580350525,0.7318183087245634,0.6108563187792745,0.479795429172009,0.1978542721175356,0.1403799707473767,0.2557346862286474,0.3995264751667775,0.6055519473592982,0.6111369478338805,0.6910245160463675,0.9139905868378702,1.344050751239907,1.749915918800253,2.115620230282017,2.571347476327729,2.807462700928312,3.196824826144569,3.332165190873687,3.379156416564872,3.504050804993311,3.452556911234054,3.929602323784726,4.520826898571897,4.901850974667048,5.258909582606307,5.449926745025965,5.352299782928005,5.426369995411854,5.379310021913988,5.451441875356898,5.666107298772998,5.70656798988906,5.775056248883699,5.812194818490966,5.839256325082513,6.014036947095247,6.206617995637463,6.278751183355671,6.276215198879119,6.275364766776459,6.272715660109927,6.26732756367902,6.250697369066808,6.169271096684557,6.236369644066158,6.19456806417128,6.10418184662791,5.950669938377118,5.782506129720408,5.563884185952805,5.362492502373286,4.850981586712819,4.602307375930134,4.407756519294345,3.784033213510793,3.067004248786918,2.518540142205643,2.211902967274688,2.04930697259794,1.971557243930848,1.76427237935943,1.527291251448902,1.525376030760915,1.695032330765407,1.79261560237854,1.71037039432111,1.563628484205793,1.354503757816967,1.511192887128071,1.790341099306493,1.887698279569882,1.910611905691777,1.953877791720734,2.087143483319425,2.359271517944268,2.509457754924923,2.524567445982423,2.383258837675761,2.354208260257813,2.310168834908179,2.380547962441804,2.305842248795509,2.15711931949806,1.736705045684006,1.106394522872323,0.7061101919307466,0.1326279718061179,-0.1476716579031995,-0.262323214312266,-0.5018357364793631,-0.7554379686746697,-0.9713856194706338,-0.8901369552856644,-0.7437363540695925,-0.5668868115250638,-0.4457691482817684,-0.3669679753925466,-0.1122765130586106,0.1492042698240449,0.4907990811532041,0.6231577032651654,0.6729994933403407,0.7658920928520467,0.723293701075425,0.5978423497471382
0.3552915373911484,0.1130869410632889,-0.1732752711879134,-0.248246449261902,-0.2710506255872618,-0.3055637697856216,-0.1771009573790271,-0.210116092973971,-0.08393187361599236,0.347379763923944,0.4638190706521714,0.5059013924631544,0.5210157135570427,0.2945904366606853,0.2199379106468717,0.3340224356536108,0.297687438341869,0.3496155494026785,0.4293850690402599,0.4991552199505155,0.8155390563774512,1.050445976960757,1.063170716373565,0.9925328642322595,0.9412642716353535,0.8249766508759591,0.6641447180959996,0.3537236411338165,0.2945443376630743,0.3726887172068185,0.4540386969997596,0.6538360305930823,0.6375069363786583,0.7329669729298092,1.046127486656421,1.531219474673038,1.823763117291998,2.134904531280946,2.576461725006752,2.887463428695079,3.100170913240564,3.186304071770683,3.220048275697871,3.411441985012756,3.43657761445287,4.013025067216001,4.587221872789567,4.974730633176701,5.412426257960687,5.706076758111196,5.468933641167345,5.235338451111629,5.343153765258096,5.553229491924779,5.571272572132605,5.541028616394086,5.719976914086733,5.947857277934895,6.047892305561989,6.229013537613826,6.270080307141953,6.273495924468657,6.2687998722659,6.259855224726403,6.26042519101867,6.263276232110302,6.269956728306667,6.253425760756274,6.230696646720904,6.211694994613818,6.167013727926772,6.028772482106664,5.811009443764169,5.465023630547539,5.229724097157665,4.917500170944034,4.670701919800118,4.191173978158521,3.593071737561023,2.794018549520544,2.296506095480365,1.921790240834844,1.741604798927994,1.660328753901469,1.455416056336742,1.29599322667436,1.389093578433542,1.498055044028792,1.497809876401145,1.45860512405919,1.336612121879372,1.270659460892924,1.444827772462591,1.6592962301568,1.815724959640782,1.931290138870979,1.941181628386458,1.934305233367713,2.150368342920387,2.242344251919038,2.207756827704618,2.261158915512273,2.16926270914705,2.059264258417334,2.102202918884515,1.924548947040412,1.787023135524095,1.445695277673916,0.832262249213812,0.399424263640297,0.06328414430266294,-0.3486832324344964,-0.5028604009700282,-0.6594241963114054,-0.986949188890873,-1.191199932632341,-0.9771534624815019,-0.7148104580094047,-0.4964089761968384,-0.3657096295899966,-0.3455153953380258,-0.08361303606546694,0.2525809226947858,0.7060032173532825,0.9169575572289479,1.014506508104344,1.009035256054534,0.7962587557476206,0.6795815752667691
