-0.52895,-0.61098,-0.7515,-1.0418,-1.3462,-1.4664,-1.4604,-1.45,-1.4529,-1.4461,-1.4481,-1.4364,-1.2805,-0.68922,-0.17828,0.15937,0.28408,0.46635,0.5759,0.45012,0.34918,0.65429,0.94147,1.2357,1.5628,1.7525,1.9671,1.8628,1.6906,1.6133,1.665,1.6568,1.9531,2.1472,2.5487,2.908,3.1916,3.3579,3.3579,3.5009,3.5009,3.551,3.551,3.551,3.551,3.3875,3.3875,3.2856,3.0844,3.1734,2.9988,2.9988,2.7811,2.7811,2.6756,2.902,2.902,3.1934,3.1934,3.1934,3.3996,3.4954,3.6485,3.7124,3.7124,3.1193,3.4747,3.4747,3.5604,3.5604,3.5604,3.6241,3.8912,4.1508,4.5359,5.0624,5.4385,5.6441,5.5813,5.6804,5.6744,5.5649,5.6452,5.5302,5.6063,5.6063,5.1295,5.6199,5.3695,4.5637,5.1051,5.1051,5.1051,4.3167,4.6515,4.6515,4.6515,4.6515,4.6515,4.1448,4.1448,4.1448,3.6312,3.5354,3.3777,3.4399,3.4399,3.4399,3.4399,3.4399,3.4399,3.3207,3.3207,3.3207,3.3207,3.3207,3.3207,2.9962,2.9962,2.9962,2.9962,2.9962,2.9962,2.6947,2.6947,2.6947,2.6947,2.6947,2.4055,2.4055,2.0752,2.0752,1.7649,1.7649,1.7649,1.767,1.767,1.5738,1.4003,1.3288,1.2272,1.1087,1.0956,1.0011,1.1532,1.6107,1.8981,2.1006,2.1637,2.1797,2.1766,2.1622,2.1358,1.9626,1.8546,1.8114,1.8503,1.751,1.5052,1.2896,0.97717,0.78383,0.84529,0.84529,0.78558,0.62723,0.24901,0.096201,-0.090741,-0.4031,-0.68279,-0.89483,-0.94304,-0.82981,-0.56008,-0.1692,0.11765,0.1229,0.10262,0.10262
-0.52895,-0.61098,-0.7515,-1.0418,-1.3462,-1.4664,-1.4604,-1.45,-1.4529,-1.4461,-1.4481,-1.4364,-1.2805,-0.68922,-0.17828,0.15937,0.28408,0.46635,0.5759,0.45012,0.34918,0.65429,0.94147,1.2357,1.5628,1.7525,1.9671,1.8628,1.6906,1.6133,1.665,1.6568,1.9531,2.1472,2.5487,2.908,3.1916,3.3579,3.3579,3.5009,3.5009,3.551,3.551,3.551,3.551,3.3875,3.3875,3.2856,3.0844,3.1734,2.9988,2.9988,2.7811,2.7811,2.6756,2.902,2.902,3.1934,3.1934,3.1934,3.3996,3.4954,3.6485,3.7124,3.7124,3.4598,3.4747,3.4747,3.5604,3.5604,3.5604,3.6241,3.8912,4.1508,4.5359,5.0624,5.4385,5.6441,5.5813,5.6804,5.6744,5.5649,5.6452,5.5302,5.6063,5.6063,5.8781,5.8781,5.7134,5.7134,5.3617,5.3617,5.3617,4.3167,4.9836,4.9836,4.9836,4.9836,4.9836,4.4179,4.4179,4.4179,3.6312,3.5354,3.3777,3.4399,3.4399,3.4399,3.4399,3.4399,3.4399,3.3207,3.3207,3.3207,3.3207,3.3207,3.3207,2.9962,2.9962,2.9962,2.9962,2.9962,2.9962,2.6947,2.6947,2.6947,2.6947,2.6947,2.4055,2.4055,2.0752,2.0752,1.7649,1.7649,1.7649,1.767,1.767,1.5738,1.4003,1.3288,1.2272,1.1087,1.0956,1.0011,1.1532,1.6107,1.8981,2.1006,2.1637,2.1797,2.1766,2.1622,2.1358,1.9626,1.8546,1.8114,1.8503,1.751,1.5052,1.2896,0.97717,0.78383,0.84529,0.84529,0.78558,0.62723,0.24901,0.096201,-0.090741,-0.4031,-0.68279,-0.89483,-0.94304,-0.82981,-0.56008,-0.1692,0.11765,0.1229,0.10262,0.10262
-0.52895,-0.61098,-0.7515,-1.0418,-1.3462,-1.4664,-1.4604,-1.45,-1.4529,-1.4461,-1.4481,-1.4364,-1.2805,-0.68922,-0.17828,0.15937,0.28408,0.46635,0.5759,0.45012,0.34918,0.65429,0.94147,1.2357,1.5628,1.7525,1.9671,1.8628,1.6906,1.6133,1.665,1.6568,1.9531,2.1472,2.5487,2.908,3.1916,3.3579,3.3579,3.5009,3.5009,3.551,3.551,3.551,3.551,3.3875,3.3875,3.2856,3.0844,3.1734,2.9988,2.9988,2.7811,2.7811,2.6756,2.902,2.902,3.1934,3.1934,3.1934,3.3996,3.4954,3.6485,3.7124,3.7124,3.4598,3.4747,3.4747,3.5604,3.5604,3.5604,3.6241,3.8912,4.1508,4.5359,5.0624,5.4385,5.6441,5.5813,5.6804,5.6744,5.5649,5.6452,5.5302,6.0654,6.0654,5.8781,5.8781,5.7134,5.7134,5.3617,5.3617,5.3617,5.3617,4.9836,4.9836,4.9836,4.9836,4.9836,4.4179,4.4179,4.4179,3.9129,3.6744,3.6236,3.6236,3.6236,3.6236,3.6236,3.6236,3.6236,3.538,3.538,3.538,3.538,3.538,3.538,3.3862,3.3862,3.3862,3.3862,3.3862,3.3862,2.6947,2.6947,2.6947,2.6947,2.6947,2.4055,2.4055,2.0752,2.0752,1.7649,1.7649,1.7649,1.767,1.767,1.5738,1.4003,1.3288,1.2272,1.1087,1.0956,1.0011,1.1532,1.6107,1.8981,2.1265,2.2231,2.2075,2.42,2.5358,2.4123,2.4235,2.2659,2.0848,2.0488,2.0136,1.861,1.5039,0.97717,0.78383,0.84529,0.84529,0.78558,0.62723,0.24901,0.096201,-0.090741,-0.4031,-0.68279,-0.89483,-0.94304,-0.82981,-0.56008,-0.1692,0.11765,0.1229,0.10262,0.10262
-0.42584,-0.64189,-0.85091,-1.1046,-1.2589,-1.4465,-1.4371,-1.4327,-1.4351,-1.4309,-1.4323,-1.4281,-1.2009,-0.53312,-0.27223,-0.055474,0.064596,0.28496,0.43288,0.27883,0.23139,0.47243,0.82602,1.0022,1.3335,1.5964,1.9319,1.8574,1.7439,1.7053,1.695,1.7268,2.0637,2.3009,2.5946,2.9409,3.2183,3.4408,3.4408,3.5911,3.5911,3.6148,3.6148,3.6148,3.5412,3.5412,3.5412,3.2907,3.3942,3.3547,3.1955,2.9701,2.9701,2.9701,2.7856,3.1034,3.1034,3.4404,3.4404,3.4404,3.7128,3.8844,4.1092,4.3016,4.3016,3.9832,3.7169,3.7169,3.7885,3.7885,3.7885,3.8326,4.1264,4.349,4.6049,4.9612,5.3693,5.6537,5.4754,5.3624,5.4359,5.3841,5.7346,5.8865,6.0654,6.0654,5.8781,5.8781,5.7134,5.7134,5.3617,5.3617,5.3617,5.3617,4.9836,4.9836,4.9836,4.9836,4.9836,4.4179,4.4179,4.4179,3.9129,3.6744,3.6236,3.6066,3.6066,3.6066,3.6066,3.6066,3.6066,3.538,3.538,3.538,3.538,3.538,3.538,3.3862,3.3862,3.3862,3.3862,3.3862,3.3862,2.8139,2.8139,2.8139,2.8139,2.8139,2.3443,2.3443,2.0923,2.0923,1.7731,1.7731,1.7731,1.6681,1.6681,1.56,1.4676,1.3687,1.1811,1.0026,1.0377,0.98596,1.1481,1.5482,1.8525,2.1265,2.2231,2.2075,2.42,2.5358,2.4123,2.4235,2.2659,2.0848,2.0488,2.0136,1.861,1.5039,1.2849,1.3216,1.1214,1.1214,0.92997,0.74224,0.38391,0.27423,-0.10169,-0.41394,-0.53328,-0.84239,-0.87565,-0.79745,-0.63909,-0.35494,-0.1224,-0.01287,-0.085741,-0.085741
-0.42584,-0.64189,-0.85091,-1.1046,-1.2589,-1.4465,-1.4371,-1.4327,-1.4351,-1.4309,-1.4323,-1.4281,-1.2009,-0.53312,-0.27223,-0.055474,0.064596,0.28496,0.43288,0.27883,0.23139,0.47243,0.82602,1.0022,1.3335,1.5964,1.9319,1.8574,1.7439,1.7053,1.695,1.7268,2.0637,2.3009,2.5946,2.9409,3.2183,3.4408,3.4408,3.5911,3.5911,3.6148,3.6148,3.6148,3.5412,3.5412,3.5412,3.2907,3.3942,3.3547,3.1955,2.9701,2.9701,2.9701,2.7856,3.1034,3.1034,3.4404,3.4404,3.4404,3.7128,3.8844,4.1092,4.3016,4.3016,3.9832,3.7169,3.7169,3.7885,3.7885,3.7885,3.8326,4.1264,4.349,4.6049,4.9612,5.3693,5.6537,5.4754,5.3624,5.4359,5.3841,5.7346,5.8865,6.0654,6.0654,5.8781,5.8781,5.7134,5.7134,5.3617,5.3617,5.3617,5.3617,4.9836,4.9836,4.9836,4.9836,4.9836,4.4179,4.4179,4.4179,3.9129,3.6744,3.6236,3.6066,3.6066,3.6066,3.6066,3.6066,3.6066,3.538,3.538,3.538,3.538,3.538,3.538,3.3862,3.3862,3.3862,3.3862,3.3862,3.3862,2.8139,2.8139,2.8139,2.8139,2.8139,2.3443,2.3443,2.0923,2.0923,1.7731,1.7731,1.7731,1.6681,1.6681,1.56,1.4676,1.3687,1.1811,1.0026,1.0377,0.98596,1.1481,1.5482,1.8525,2.1265,2.2231,2.2075,2.42,2.5358,2.4123,2.4235,2.2659,2.0848,2.0488,2.0136,1.861,1.5039,1.2849,1.3216,1.1214,1.1214,0.92997,0.74224,0.38391,0.27423,-0.10169,-0.41394,-0.53328,-0.84239,-0.87565,-0.79745,-0.63909,-0.35494,-0.1224,-0.01287,-0.085741,-0.085741
-0.42584,-0.64189,-0.85091,-1.1046,-1.2589,-1.4465,-1.4371,-1.4327,-1.4351,-1.4309,-1.4323,-1.4281,-1.2009,-0.53312,-0.27223,-0.055474,0.064596,0.28496,0.43288,0.27883,0.23139,0.47243,0.82602,1.0022,1.3335,1.5964,1.9319,1.8574,1.7439,1.7053,1.695,1.7268,2.0637,2.3009,2.5946,2.9409,3.2183,3.4408,3.4408,3.5911,3.5911,3.6148,3.6148,3.6148,3.5412,3.5412,3.5412,3.2907,3.3942,3.3547,3.1955,2.9701,2.9701,2.9701,2.7856,3.1034,3.1034,3.4404,3.4404,3.4404,3.7128,3.8844,4.1092,4.3016,4.3016,3.9832,3.7169,3.7169,3.7885,3.7885,3.7885,3.8326,4.1264,4.349,4.6049,4.9612,5.3693,5.6537,5.4754,5.3624,5.4359,5.3841,5.7346,5.8865,6.0654,6.0654,5.8781,5.8781,5.7134,5.7134,5.3617,5.3617,5.3617,5.3617,4.9836,4.9836,4.9836,4.9836,4.9836,4.4179,4.4179,4.4179,3.9129,3.6744,3.6236,3.6066,3.6066,3.6066,3.6066,3.6066,3.6066,3.538,3.538,3.538,3.538,3.538,3.538,3.3862,3.3862,3.3862,3.3862,3.3862,3.3862,2.8139,2.8139,2.8139,2.8139,2.8139,2.3443,2.3443,2.0923,2.0923,1.7731,1.7731,1.7731,1.6681,1.6681,1.56,1.4676,1.3687,1.1811,1.0026,1.0377,0.98596,1.1481,1.5482,1.8525,2.1265,2.2231,2.2075,2.42,2.5358,2.4123,2.4235,2.2659,2.0848,2.0488,2.0136,1.861,1.5039,1.2849,1.3216,1.1214,1.1214,0.92997,0.74224,0.38391,0.27423,-0.10169,-0.41394,-0.53328,-0.84239,-0.87565,-0.79745,-0.63909,-0.35494,-0.1224,-0.01287,-0.085741,-0.085741
-0.42584,-0.64189,-0.85091,-1.1046,-1.2589,-1.4465,-1.4371,-1.4327,-1.4351,-1.4309,-1.4323,-1.4281,-1.2009,-0.53312,-0.27223,-0.055474,0.064596,0.28496,0.43288,0.27883,0.23139,0.47243,0.82602,1.0022,1.3335,1.5964,1.9319,1.8574,1.7439,1.7053,1.695,1.7268,2.0637,2.3009,2.5946,2.9409,3.2183,3.4408,3.4408,3.5911,3.5911,3.6148,3.6148,3.6148,3.5412,3.5412,3.5412,3.2907,3.3942,3.3547,3.1955,2.9701,2.9701,2.9701,2.7856,3.1034,3.1034,3.4404,3.4404,3.4404,3.7128,3.8844,4.1092,4.3016,4.3016,3.9832,3.7169,3.7169,3.7885,3.7885,3.7885,3.8326,4.1264,4.349,4.6049,4.9612,5.3693,5.6537,5.4754,5.3624,5.4359,5.3841,5.7346,5.8865,6.0654,6.0654,5.8781,5.8781,5.8831,5.6987,5.6987,5.6987,5.6987,5.6987,5.1629,5.1629,5.1629,5.1629,5.1629,4.6563,4.6563,4.6563,4.341,3.6744,3.6236,3.6066,3.6066,3.6066,3.6066,3.6066,3.6066,3.538,3.538,3.538,3.538,3.538,3.538,3.3862,3.3862,3.3862,3.3862,3.3862,3.3862,2.8139,2.8139,2.8139,2.8139,2.8139,2.3443,2.3443,2.0923,2.0923,1.7731,1.7731,1.7731,1.6681,1.6681,1.56,1.4676,1.3687,1.1811,1.0026,1.0377,0.98596,1.1481,1.5482,1.8525,2.1265,2.2231,2.2075,2.42,2.5358,2.4123,2.4235,2.2659,2.0848,2.0488,2.0136,1.861,1.5039,1.2849,1.3216,1.1214,1.1214,0.92997,0.74224,0.38391,0.27423,-0.10169,-0.41394,-0.53328,-0.84239,-0.87565,-0.79745,-0.63909,-0.35494,-0.1224,-0.01287,-0.085741,-0.085741
-0.42584,-0.64189,-0.85091,-1.1046,-1.2589,-1.4465,-1.4371,-1.4327,-1.4351,-1.4309,-1.4323,-1.4281,-1.2009,-0.53312,-0.27223,-0.055474,0.064596,0.28496,0.43288,0.27883,0.23139,0.47243,0.82602,1.0022,1.3335,1.5964,1.9319,1.8574,1.7439,1.7053,1.695,1.7268,2.0637,2.3009,2.5946,2.9409,3.2183,3.4408,3.4408,3.5911,3.5911,3.6148,3.6148,3.6148,3.5412,3.5412,3.5412,3.2907,3.3942,3.3547,3.1955,2.9701,2.9701,2.9701,2.7856,3.1034,3.1034,3.4404,3.4404,3.4404,3.7128,3.8844,4.1092,4.3016,4.3016,3.9832,3.7169,3.7169,3.7885,3.7885,3.7885,3.8326,4.1264,4.349,4.6049,4.9612,5.3693,5.6537,5.4754,5.3624,5.4359,5.3841,5.7346,5.8865,6.0654,6.0654,6.047,6.047,5.8831,5.6987,5.6987,5.6987,5.6987,5.6987,5.1629,5.1629,5.1629,5.1629,5.1629,4.6563,4.6563,4.6563,4.341,4.1174,3.8964,3.6066,3.6066,3.6066,3.6066,3.6066,3.6066,3.538,3.538,3.538,3.538,3.538,3.538,3.3862,3.3862,3.3862,3.3862,3.3862,3.3862,2.8139,2.8139,2.8139,2.8139,2.8139,2.3443,2.3443,2.0923,2.0923,1.7731,1.7731,1.7731,1.6681,1.6681,1.56,1.4676,1.3687,1.1811,1.0026,1.0377,0.98596,1.1481,1.3617,1.6592,1.9644,2.2279,2.3508,2.7962,2.8261,2.744,2.7873,2.627,2.4476,2.269,2.0136,1.861,1.5039,1.2849,1.3216,1.1214,1.1214,0.92997,0.74224,0.38391,0.27423,-0.10169,-0.41394,-0.53328,-0.84239,-0.87565,-0.79745,-0.63909,-0.35494,-0.1224,-0.01287,-0.085741,-0.085741
-0.36188,-0.74795,-1.1356,-1.2618,-1.1958,-1.4089,-1.4205,-1.4215,-1.4209,-1.4148,-1.417,-1.2707,-1.0375,-0.42379,-0.32196,-0.28798,-0.11132,0.19045,0.43289,0.32974,0.33012,0.50378,0.72292,0.92049,1.1356,1.5022,1.8105,1.9416,1.8983,1.7732,1.8229,1.8091,2.1129,2.4132,2.7205,3.0414,3.3175,3.5061,3.5061,3.633,3.633,3.7048,3.7048,3.7048,3.5922,3.5922,3.5922,3.3746,3.282,3.2928,3.2455,3.1259,3.1259,3.1259,3.02,3.3766,3.3766,3.879,3.879,4.2734,4.3691,4.5612,4.5612,4.5017,4.5017,4.4001,4.1204,4.1204,4.0056,4.0056,4.0827,4.2069,4.2069,4.3734,4.7157,4.9209,5.1153,5.3172,5.2796,5.2781,5.2183,5.3202,5.5477,5.9893,6.0739,6.0739,6.047,6.047,5.8831,5.6987,5.6987,5.6987,5.6987,5.6987,5.1629,5.1629,5.1629,5.1629,5.1629,4.6563,4.6563,4.6563,4.341,4.1174,3.8964,3.6995,3.6995,3.6995,3.6995,3.6995,3.6995,3.5465,3.5465,3.5465,3.5465,3.5465,3.5465,3.2423,3.2423,3.2423,3.2423,3.2423,3.2423,2.8678,2.8678,2.8678,2.8678,2.8678,2.4493,2.4493,2.0927,2.0927,1.8532,1.8532,1.8532,1.8417,1.8417,1.7364,1.602,1.4485,1.3656,1.2356,1.1038,1.0189,1.1106,1.3617,1.6592,1.9644,2.2279,2.3508,2.7962,2.8261,2.744,2.7873,2.627,2.4476,2.269,2.0925,1.9172,1.7588,1.4653,1.3513,1.1984,1.1984,1.0301,0.87456,0.45631,0.19112,-0.11271,-0.3747,-0.57173,-0.9584,-1.1219,-1.0075,-0.82935,-0.61876,-0.46219,-0.4194,-0.41986,-0.41986
-0.36188,-0.74795,-1.1356,-1.2618,-1.1958,-1.4089,-1.4205,-1.4215,-1.4209,-1.4148,-1.417,-1.2707,-1.0375,-0.42379,-0.32196,-0.28798,-0.11132,0.19045,0.43289,0.32974,0.33012,0.50378,0.72292,0.92049,1.1356,1.5022,1.8105,1.9416,1.8983,1.7732,1.8229,1.8091,2.1129,2.4132,2.7205,3.0414,3.3175,3.5061,3.5061,3.633,3.633,3.7048,3.7048,3.7048,3.5922,3.5922,3.5922,3.3746,3.282,3.2928,3.2455,3.1259,3.1259,3.1259,3.02,3.3766,3.3766,3.879,3.879,4.2734,4.3691,4.5612,4.5612,4.5017,4.5017,4.4001,4.1204,4.1204,4.0056,4.0056,4.0827,4.2069,4.2069,4.3734,4.7157,4.9209,5.1153,5.3172,5.2796,5.2781,5.2183,5.3202,5.5477,5.9893,6.0739,6.0739,6.047,6.047,5.8831,5.6987,5.6987,5.6987,5.6987,5.577,5.577,5.577,5.577,5.577,5.577,4.9886,4.9886,4.9886,4.7162,4.7162,3.8964,3.6995,3.6995,3.6995,3.6995,3.6995,3.6995,3.5465,3.5465,3.5465,3.5465,3.5465,3.5465,3.2423,3.2423,3.2423,3.2423,3.2423,3.2423,2.8678,2.8678,2.8678,2.8678,2.8678,2.4493,2.4493,2.0927,2.0927,1.8532,1.8532,1.8532,1.8417,1.8417,1.7364,1.602,1.4485,1.3656,1.2356,1.1038,1.0189,1.1106,1.3617,1.6592,1.9644,2.2279,2.3508,2.7962,2.8261,2.744,2.7873,2.627,2.4476,2.269,2.0925,1.9172,1.7588,1.4653,1.3513,1.1984,1.1984,1.0301,0.87456,0.45631,0.19112,-0.11271,-0.3747,-0.57173,-0.9584,-1.1219,-1.0075,-0.82935,-0.61876,-0.46219,-0.4194,-0.41986,-0.41986
-0.36188,-0.74795,-1.1356,-1.2618,-1.1958,-1.4089,-1.4205,-1.4215,-1.4209,-1.4148,-1.417,-1.2707,-1.0375,-0.42379,-0.32196,-0.28798,-0.11132,0.19045,0.43289,0.32974,0.33012,0.50378,0.72292,0.92049,1.1356,1.5022,1.8105,1.9416,1.8983,1.7732,1.8229,1.8091,2.1129,2.4132,2.7205,3.0414,3.3175,3.5061,3.5061,3.633,3.633,3.7048,3.7048,3.7048,3.5922,3.5922,3.5922,3.3746,3.282,3.2928,3.2455,3.1259,3.1259,3.1259,3.02,3.3766,3.3766,3.879,3.879,4.2734,4.3691,4.5612,4.5612,4.5017,4.5017,4.4001,4.1204,4.1204,4.0056,4.0056,4.0827,4.2069,4.2069,4.3734,4.7157,4.9209,5.1153,5.3172,5.2796,5.2781,5.2183,5.3202,5.5477,5.9893,6.0739,6.0739,6.047,6.047,5.8831,5.8918,5.8918,5.8918,5.8918,5.577,5.577,5.577,5.577,5.577,5.577,4.9886,4.9886,4.9886,4.7162,4.3921,4.3921,4.3921,4.3921,3.6995,3.6995,3.6995,3.6995,3.5465,3.5465,3.5465,3.5465,3.5465,3.5465,3.2423,3.2423,3.2423,3.2423,3.2423,3.2423,2.8678,2.8678,2.8678,2.8678,2.8678,2.4493,2.4493,2.0927,2.0927,1.8532,1.8532,1.8532,1.8417,1.8417,1.7364,1.602,1.4485,1.3656,1.2356,1.1038,1.0189,1.1106,1.3617,1.6592,1.9644,2.2279,2.3508,2.7962,2.8261,2.744,2.7873,2.627,2.4476,2.269,2.0925,1.9172,1.7588,1.4653,1.3513,1.1984,1.1984,1.0301,0.87456,0.45631,0.19112,-0.11271,-0.3747,-0.57173,-0.9584,-1.1219,-1.0075,-0.82935,-0.61876,-0.46219,-0.4194,-0.41986,-0.41986
-0.36188,-0.74795,-1.1356,-1.2618,-1.1958,-1.4089,-1.4205,-1.4215,-1.4209,-1.4148,-1.417,-1.2707,-1.0375,-0.42379,-0.32196,-0.28798,-0.11132,0.19045,0.43289,0.32974,0.33012,0.50378,0.72292,0.92049,1.1356,1.5022,1.8105,1.9416,1.8983,1.7732,1.8229,1.8091,2.1129,2.4132,2.7205,3.0414,3.3175,3.5061,3.5061,3.633,3.633,3.7048,3.7048,3.7048,3.5922,3.5922,3.5922,3.3746,3.282,3.2928,3.2455,3.1259,3.1259,3.1259,3.02,3.3766,3.3766,3.879,3.879,4.2734,4.3691,4.5612,4.5612,4.5017,4.5017,4.4001,4.1204,4.1204,4.0056,4.0056,4.0827,4.2069,4.2069,4.3734,4.7157,4.9209,5.1153,5.3172,5.2796,5.2781,5.2183,5.3202,5.5477,5.9893,6.0739,6.0739,6.047,6.047,6.0484,5.8918,5.8918,5.8918,5.8918,5.577,5.577,5.577,5.577,5.577,5.577,4.9886,4.9886,4.9886,4.7162,4.3921,3.9889,3.9889,3.9889,3.9889,3.9889,3.9889,3.9889,3.5465,3.5465,3.5465,3.5465,3.5465,3.5465,3.2423,3.2423,3.2423,3.2423,3.2423,3.2423,2.8678,2.8678,2.8678,2.8678,2.8678,2.4493,2.4493,2.0927,2.0927,1.8532,1.8532,1.8532,1.8417,1.8417,1.7364,1.602,1.4485,1.3656,1.2356,1.1038,1.0189,1.1106,1.3617,1.6592,1.9644,2.2279,2.4958,2.7222,2.9581,2.9992,2.9992,2.627,2.4476,2.269,2.0925,1.9172,1.7588,1.4653,1.3513,1.1984,1.1984,1.0301,0.87456,0.45631,0.19112,-0.11271,-0.3747,-0.57173,-0.9584,-1.1219,-1.0075,-0.82935,-0.61876,-0.46219,-0.4194,-0.41986,-0.41986
-0.38667,-0.6707,-0.96839,-1.1528,-1.1108,-1.2387,-1.3108,-1.4093,-1.4117,-1.4013,-1.4027,-1.1827,-0.68695,-0.42363,-0.23807,-0.20861,0.014166,0.28737,0.3838,0.30987,0.42212,0.47557,0.77059,1.0213,1.1375,1.483,1.7793,1.8625,2.0184,1.843,1.823,1.8812,2.0938,2.457,2.81,3.1759,3.4327,3.5953,3.5953,3.65,3.65,3.6929,3.6929,3.6929,3.6929,3.5403,3.5403,3.3198,3.3198,3.2406,3.2781,3.2332,3.2332,3.2332,3.4062,3.8174,3.8174,4.2246,4.2246,4.5549,4.7915,4.7817,4.7817,4.7651,4.7651,4.6611,4.3599,4.071,4.071,4.071,4.1592,4.2583,4.2583,4.3982,4.5666,4.8446,5.0591,5.1587,5.1162,5.0292,5.0361,5.155,5.455,5.8362,5.9958,5.9958,6.062,6.062,6.0484,5.8918,5.8918,5.8918,5.8918,5.577,5.577,5.577,5.577,5.577,5.577,5.2926,5.2926,5.2926,5.0341,4.6963,3.9889,3.7735,3.7735,3.7735,3.7735,3.7735,3.7735,3.562,3.562,3.562,3.562,3.562,3.562,3.2346,3.2346,3.2346,3.2346,3.2346,3.2346,3.0468,3.0468,3.0468,3.0468,3.0468,2.7075,2.7075,2.2149,2.2149,1.9936,1.9936,1.9936,1.954,1.954,1.858,1.8367,1.6084,1.5346,1.4725,1.2323,0.99751,1.0428,1.336,1.8249,2.2416,2.4052,2.4958,2.7222,2.9581,2.9992,2.8411,2.6723,2.4899,2.3062,2.1287,1.9526,1.7894,1.5337,1.3996,1.0623,1.0623,0.89434,0.74864,0.17377,-0.19146,-0.41928,-0.65815,-0.92364,-1.186,-1.3142,-1.1876,-0.96896,-0.74739,-0.57912,-0.66735,-0.65655,-0.65655
-0.38667,-0.6707,-0.96839,-1.1528,-1.1108,-1.2387,-1.3108,-1.4093,-1.4117,-1.4013,-1.4027,-1.1827,-0.68695,-0.42363,-0.23807,-0.20861,0.014166,0.28737,0.3838,0.30987,0.42212,0.47557,0.77059,1.0213,1.1375,1.483,1.7793,1.8625,2.0184,1.843,1.823,1.8812,2.0938,2.457,2.81,3.1759,3.4327,3.5953,3.5953,3.65,3.65,3.6929,3.6929,3.6929,3.6929,3.5403,3.5403,3.3198,3.3198,3.2406,3.2781,3.2332,3.2332,3.2332,3.4062,3.8174,3.8174,4.2246,4.2246,4.5549,4.7915,4.7817,4.7817,4.7651,4.7651,4.6611,4.3599,4.071,4.071,4.071,4.1592,4.2583,4.2583,4.3982,4.5666,4.8446,5.0591,5.1587,5.1162,5.0292,5.0361,5.155,5.455,5.8362,5.9958,5.9958,6.062,6.062,6.0484,5.7967,5.7967,5.7967,5.7967,5.6046,5.6046,5.6046,5.6046,5.6046,5.6046,5.2926,5.2926,5.2926,5.0341,4.6963,4.1805,3.7735,3.7735,3.7735,3.7735,3.7735,3.7735,3.562,3.562,3.562,3.562,3.562,3.562,3.2346,3.2346,3.2346,3.2346,3.2346,3.2346,3.0468,3.0468,3.0468,3.0468,3.0468,2.7075,2.7075,2.2149,2.2149,1.9936,1.9936,1.9936,1.954,1.954,2.1184,2.1026,1.6084,1.5346,1.4725,1.3026,1.0466,1.055,1.51,1.9856,2.2416,2.4986,2.579,2.7754,3.0178,3.0269,2.8411,2.6723,2.4899,2.3062,2.1287,1.9526,1.7894,1.5337,1.3996,1.0623,1.0623,0.89434,0.74864,0.17377,-0.19146,-0.41928,-0.65815,-0.92364,-1.186,-1.3142,-1.1876,-0.96896,-0.74739,-0.57912,-0.66735,-0.65655,-0.65655
-0.54007,-0.54007,-0.71104,-0.8302,-0.85295,-0.97282,-1.1612,-1.4047,-1.4028,-1.392,-1.12,-0.84025,-0.68703,-0.44349,-0.24284,-0.08283,0.20049,0.30287,0.29795,0.26994,0.34885,0.49427,0.85854,1.1408,1.3998,1.7091,1.8668,1.988,2.0623,2.037,1.9488,2.1144,2.2898,2.4884,2.7821,3.1902,3.4974,3.6744,3.6744,3.8743,3.8743,3.8445,3.8445,3.8445,3.8445,3.7265,3.7265,3.4323,3.4323,3.1912,3.2664,3.3779,3.3779,3.3779,3.6231,4.0951,4.0951,4.5458,4.5458,4.8278,5.0023,5.1888,4.9412,4.9412,4.9412,4.795,4.427,4.1539,4.1539,4.1539,4.3261,4.3989,4.3852,4.4273,4.4273,4.762,4.8564,4.8967,4.8117,4.8225,4.7705,4.9392,5.4269,5.5964,5.6787,5.6787,5.9614,5.9614,6.0532,5.7967,5.7967,5.7967,5.7967,5.6046,5.6046,5.6046,5.6046,5.6046,5.6046,5.2926,5.2926,5.2926,5.3662,5.3662,4.1805,3.7806,3.7806,3.7806,3.7806,3.7806,3.7806,3.4781,3.4781,3.4781,3.4781,3.4781,3.4781,3.402,3.402,3.402,3.402,3.402,3.402,3.1807,3.1807,3.1807,3.1807,3.1807,2.9071,2.9071,2.5301,2.5301,2.2406,2.2406,2.2406,2.1082,2.1082,2.1184,2.1026,1.8208,1.5468,1.4847,1.3026,1.0466,1.055,1.51,1.9856,2.3845,2.4986,2.579,2.7754,3.0178,3.0269,2.8651,2.687,2.5001,2.3164,2.1325,1.9643,1.7986,1.5195,1.0497,0.66177,0.66177,0.68136,0.53498,-0.038334,-0.46975,-0.77177,-0.99805,-1.1701,-1.3137,-1.436,-1.4362,-1.3944,-1.0462,-0.71334,-0.63584,-0.6774,-0.6774
-0.54007,-0.54007,-0.71104,-0.8302,-0.85295,-0.97282,-1.1612,-1.4047,-1.4028,-1.392,-1.12,-0.84025,-0.68703,-0.44349,-0.24284,-0.08283,0.20049,0.30287,0.29795,0.26994,0.34885,0.49427,0.85854,1.1408,1.3998,1.7091,1.8668,1.988,2.0623,2.037,1.9488,2.1144,2.2898,2.4884,2.7821,3.1902,3.4974,3.6744,3.6744,3.8743,3.8743,3.8445,3.8445,3.8445,3.8445,3.7265,3.7265,3.4323,3.4323,3.1912,3.2664,3.3779,3.3779,3.3779,3.6231,4.0951,4.0951,4.5458,4.5458,4.8278,5.0023,5.1888,4.9412,4.9412,4.9412,4.795,4.427,4.1539,4.1539,4.1539,4.3261,4.3989,4.3852,4.4273,4.4273,4.762,4.8564,4.8967,4.8117,4.8225,4.7705,4.9392,5.4269,5.5964,5.6787,5.6787,5.9614,5.9614,6.0532,5.7178,5.7178,5.7178,5.7178,5.6557,5.6557,5.6557,5.6557,5.6557,5.6557,5.4016,5.4016,5.4016,5.3662,4.9504,4.2849,3.8142,3.8142,3.8142,3.8142,3.8142,3.8142,3.6319,3.6319,3.6319,3.6319,3.6319,3.6319,3.6917,3.6917,3.6917,3.6917,3.6917,3.6917,3.4315,3.4315,3.4315,3.4315,3.4315,3.1553,3.1553,2.7392,2.7392,2.7392,2.7392,2.7392,2.1044,2.1044,2.0416,1.8934,1.7632,1.5575,1.457,1.3513,1.0866,1.294,1.5958,1.8469,2.3053,2.5186,2.6787,3.0164,3.1569,3.0391,2.8664,2.6922,2.5028,2.3164,2.1325,1.9643,1.7986,1.5195,1.0497,0.66177,0.66177,0.68136,0.53498,-0.038334,-0.46975,-0.77177,-0.99805,-1.1701,-1.3137,-1.436,-1.4362,-1.3944,-1.0462,-0.71334,-0.63584,-0.6774,-0.6774
-0.57174,-0.57174,-0.70979,-0.70593,-0.78058,-0.83566,-1.0367,-1.2682,-1.2726,-1.1384,-0.9153,-0.78038,-0.73283,-0.489,-0.33873,-0.11567,0.19241,0.075532,0.0036221,0.26994,0.44125,0.71115,1.0716,1.2928,1.4422,1.711,1.91,2.0191,2.1898,2.0538,2.0926,2.2436,2.4933,2.6695,2.7612,3.205,3.533,3.7417,3.7417,3.9421,3.9421,3.9954,3.9954,3.9954,3.9954,3.8358,3.8358,3.6635,3.6635,3.2494,3.1781,3.3362,3.3362,3.3362,3.685,4.094,4.094,4.6627,4.6627,5.0764,5.3848,5.4341,5.1968,5.1968,5.1968,5.0592,4.5922,4.5388,4.5388,4.5388,4.5972,4.4863,4.3878,4.5664,4.8003,4.8003,4.7458,4.7299,4.7982,4.9733,4.8947,4.9733,5.2485,5.3033,5.5764,5.5764,5.8096,5.8096,5.7532,5.7178,5.7178,5.7178,5.7178,5.6557,5.6557,5.6557,5.6557,5.6557,5.6557,5.4016,5.4016,5.4016,5.3662,4.9504,4.2849,3.8142,3.8142,3.8142,3.8142,3.8142,3.8142,4.0046,4.0046,4.0046,4.0046,4.0046,4.0046,3.6917,3.6917,3.6917,3.6917,3.6917,3.6917,3.4315,3.4315,3.4315,3.4315,3.4315,3.1553,3.1553,2.7392,2.7392,2.3457,2.3457,2.3457,2.1044,2.1044,2.0416,1.8934,1.7632,1.5575,1.457,1.3513,1.0866,1.294,1.5958,1.8469,2.3053,2.5186,2.6787,3.0164,3.1569,3.0391,2.8664,2.6922,2.5028,2.3223,2.1394,1.9681,1.7942,1.2193,0.73784,0.3952,0.3952,0.37963,0.19685,-0.27825,-0.58651,-0.75763,-1.0192,-1.1809,-1.407,-1.4291,-1.4244,-1.4137,-1.3956,-1.0995,-0.84128,-0.90002,-0.90002
-0.64784,-0.64784,-0.79391,-0.73483,-0.84782,-0.99433,-0.97991,-1.089,-1.2932,-1.1471,-0.90737,-0.75845,-0.726,-0.56747,-0.3721,-0.23337,-0.18949,-0.1471,-0.11095,-0.11095,0.39287,0.91322,1.0964,1.2783,1.3645,1.711,1.91,1.906,2.0617,2.0457,2.1623,2.403,2.7147,2.9534,2.9199,3.0685,3.3934,3.6471,3.6471,3.8386,3.8386,3.9954,3.7432,3.7432,3.7432,3.5636,3.5636,3.6,3.5799,3.5187,3.3246,3.3362,3.46,3.46,3.8094,4.2672,4.2672,4.9136,4.9136,5.2183,5.4879,5.5444,5.4042,5.4042,5.0875,5.0875,4.8079,4.651,4.651,4.651,4.7157,4.5887,4.4561,4.5351,4.7005,4.5798,4.5975,4.8691,4.8691,5.068,5.0072,5.1464,5.1835,5.3102,5.4198,5.4198,5.5893,5.5893,5.6165,5.5344,5.5344,5.5344,5.5344,5.5691,5.5691,5.5691,5.5691,5.5691,5.5691,5.5454,5.5454,5.5454,5.5251,5.3184,4.8683,4.8683,4.6537,4.6537,4.6537,4.6537,4.6537,4.0046,4.3734,4.3734,4.3734,4.3734,4.3734,4.2143,4.2143,4.2143,4.2143,4.2143,4.2143,4.2143,4.2143,4.2143,4.2143,4.2143,3.5864,3.5864,3.1391,3.1391,2.5079,2.5079,2.5079,2.033,2.033,1.6435,1.3951,1.3085,1.2472,1.3104,1.3664,1.4687,1.4944,1.6066,1.7582,1.9494,2.4272,2.7597,2.9568,3.1647,3.0466,2.8801,2.6958,2.5057,2.3089,2.3089,1.9618,1.6425,1.0561,0.68082,0.30669,0.30669,0.24874,-0.017076,-0.39817,-0.65795,-0.81262,-0.98325,-1.219,-1.4045,-1.4089,-1.4037,-1.4022,-1.4108,-1.2872,-0.95668,-1.0406,-1.0406
-0.58883,-0.70921,-0.75399,-1.0011,-1.2811,-1.1192,-1.1192,-1.2132,-1.3068,-1.0999,-0.98778,-0.896,-0.90782,-0.93665,-0.67323,-0.60228,-0.61583,-0.32035,0.022954,0.28574,0.48492,0.77064,1.0059,1.0989,1.0908,1.0908,1.0927,1.906,1.6306,1.8393,2.0299,2.4035,2.778,2.9105,3.038,3.0146,3.277,3.4802,3.4802,3.5907,3.5907,3.5907,3.4582,3.4582,3.4582,3.4582,3.1864,3.1864,3.3769,3.2839,3.3349,3.3349,3.6242,3.6242,4.6542,4.6542,4.6542,5.139,5.139,5.2937,5.3348,5.5735,5.3582,5.3582,4.9551,4.9551,4.8352,4.6465,4.6465,4.6465,4.6577,4.6048,4.5255,4.5561,4.6415,4.5717,4.5429,4.6425,4.8846,4.9619,4.9619,5.0167,5.0653,5.1483,5.2414,5.2414,5.3431,5.3431,5.3908,5.381,5.381,5.381,5.381,5.5682,5.5682,5.5682,5.5682,5.5682,5.5682,5.548,5.548,5.548,5.5251,5.4329,5.1672,5.1672,4.6537,4.9385,4.9385,4.9385,4.9385,4.0046,4.3734,4.687,4.687,4.687,4.687,4.2143,4.2143,4.3964,4.3964,4.3964,4.3964,3.9497,3.9497,3.9497,3.9497,3.9497,3.5864,3.5864,3.1391,3.1391,2.8495,2.8495,2.8495,2.2385,2.2385,1.7128,1.354,1.2266,1.1888,1.1524,1.2524,1.3165,1.3189,1.4918,1.7582,1.9494,2.2599,2.699,2.8632,3.0437,2.8365,2.8801,2.6958,2.5057,2.3089,2.0527,1.6291,1.3454,0.81381,0.46281,0.14113,0.14113,0.15766,-0.12343,-0.42482,-0.69975,-0.90772,-1.0294,-1.345,-1.408,-1.4075,-1.407,-1.3999,-1.3503,-1.1147,-0.81092,-0.98033,-0.98033
-0.63357,-0.74775,-0.87705,-1.2452,-1.3741,-1.099,-0.95498,-1.1787,-1.2849,-1.0758,-0.94995,-0.8287,-0.83543,-0.98705,-0.93751,-0.77962,-0.57137,-0.24059,-0.0078525,0.29588,0.59909,0.76007,0.86254,0.88889,1.0908,0.76659,0.79397,0.93108,1.6306,1.8393,1.5843,2.0673,2.5495,2.7686,2.882,2.9793,3.2082,3.2719,3.2719,3.5907,3.1803,3.1803,3.4582,3.0476,3.0476,3.0476,3.0067,3.0067,3.1301,3.2839,3.3349,3.2336,3.8589,4.4868,5.0705,5.0705,5.3664,5.3664,5.3664,5.4833,5.5125,5.5104,5.3281,5.3281,5.0885,5.0885,4.9384,4.6775,4.6775,4.6775,4.7381,4.8197,4.6835,4.8237,4.7739,4.5898,4.4616,4.6077,4.771,4.9424,4.9471,4.8334,4.9245,4.939,4.939,4.939,4.9547,4.9547,5.0763,5.2266,5.2266,5.2266,5.2266,5.325,5.325,5.325,5.325,5.325,5.325,5.4458,5.4458,5.4458,5.5281,5.4329,5.3181,5.3181,5.3181,5.0425,5.0425,5.0425,5.0425,5.0425,4.3734,4.7997,4.7997,4.7997,4.7997,4.7997,4.7997,4.7997,4.471,4.471,4.471,4.0766,4.0766,4.0766,4.0766,4.0766,3.782,3.782,3.461,3.461,3.0257,3.0257,3.0257,2.2831,2.2831,1.9156,1.5595,1.2994,1.2236,1.0491,1.1623,1.337,1.3153,1.3016,1.7795,2.0033,2.2599,2.4802,2.7197,2.8549,2.716,2.716,2.5724,2.4135,2.1991,1.8142,1.4258,1.1733,0.6773,0.48077,0.23436,0.23436,0.11965,-0.083239,-0.4591,-0.72644,-0.94505,-1.131,-1.3875,-1.4213,-1.3603,-1.2143,-1.1664,-1.163,-0.94187,-0.83036,-1.0313,-1.0313
-0.72857,-0.81975,-0.80754,-1.0989,-1.2905,-1.1007,-0.93329,-1.1912,-1.3128,-1.084,-0.87081,-0.64483,-0.57671,-0.82012,-1.0074,-0.79843,-0.47188,-0.24059,-0.27342,0.29588,0.52969,0.66107,0.73747,0.88889,0.68364,0.40171,0.43297,0.56053,0.66825,0.80592,0.95236,1.844,2.3332,2.5835,2.5907,2.9764,3.1112,3.2719,3.062,3.062,3.0309,3.0309,3.0309,2.9543,2.9543,2.9543,3.0204,3.0204,3.135,3.1552,3.1466,3.9989,4.783,4.783,5.2714,5.2714,5.2714,5.6044,5.6044,5.5442,5.5561,5.4613,5.4452,5.4452,5.2628,5.2628,5.1609,5.0733,5.0733,5.0733,4.9194,4.9716,4.8188,4.947,4.8868,4.71,4.6328,4.6201,4.681,4.8255,4.9505,4.8621,4.8408,4.7819,4.7819,4.7819,4.6518,4.8602,4.8602,5.0243,5.0243,5.0243,5.0243,5.1623,5.1623,5.1623,5.1623,5.1623,5.1623,5.3651,5.3651,5.3651,5.5518,5.4881,5.5209,5.5209,5.132,5.132,5.132,5.132,5.132,5.132,5.132,4.7691,4.7691,4.7691,4.7691,4.7691,4.7691,4.7691,4.471,4.471,4.471,4.0766,4.0766,4.0766,4.0766,4.0766,3.782,3.782,3.461,3.461,3.0257,3.0257,3.0257,2.2831,2.2831,1.9156,1.5595,1.2994,1.2236,1.0491,1.1623,1.337,1.3153,1.3016,1.5224,1.7647,2.0316,2.4802,2.7197,2.8549,2.716,2.5953,2.527,2.3284,2.2077,1.7956,1.3886,0.91617,0.60698,0.44573,0.24009,0.24009,0.19405,0.14673,-0.18835,-0.53686,-0.85819,-1.1989,-1.4164,-1.4283,-1.2916,-1.0349,-0.90809,-0.98784,-0.77991,-0.65327,-0.71152,-0.71152
-0.5024,-0.59089,-0.64682,-0.94279,-1.075,-0.94728,-0.80436,-1.0279,-1.2276,-1.017,-0.69845,-0.4683,-0.40132,-0.56915,-0.69776,-0.59297,-0.33682,-0.13558,-0.13558,0.054261,0.52283,0.59104,0.73747,0.61035,0.58234,0.27483,0.13431,0.11467,0.26785,0.58211,0.76039,1.7502,2.1704,2.2769,2.378,2.6725,2.9059,2.9059,2.8881,2.8881,3.018,3.018,3.018,3.1246,3.1246,3.1246,3.1383,3.1383,3.2349,3.0463,3.0069,3.9989,4.7484,4.7484,5.424,5.424,5.424,5.6373,5.6373,5.5442,5.5267,5.5997,5.3881,5.3881,5.2696,5.2696,5.3229,5.2197,5.2197,5.2197,5.1066,5.0132,4.9237,4.9111,4.7452,4.7174,4.7186,4.6693,4.616,4.7198,4.7652,4.728,4.7354,4.81,4.81,4.6869,4.6869,4.7363,4.7363,4.8787,4.8787,4.8787,4.8787,4.9774,4.9774,4.9774,4.9774,4.9774,4.9774,5.2344,5.2344,5.2344,5.4357,5.5394,5.5209,5.5209,5.132,5.132,5.132,5.132,5.132,5.132,5.132,4.7691,4.7691,4.7691,4.7691,4.7691,4.7691,4.7691,4.2912,4.2912,4.2912,3.8298,3.8298,3.8298,3.8298,3.8298,3.604,3.604,3.3268,3.3268,2.9001,2.9001,2.9001,2.379,2.379,1.9372,1.9369,1.7774,1.4203,1.4203,1.1341,1.226,1.3678,1.3614,1.4281,1.5862,1.9699,2.4662,2.769,2.8546,2.8755,2.7981,2.6998,2.4717,2.2213,1.7562,1.3403,0.82263,0.45891,0.34272,0.28461,0.28461,0.14154,0.031662,-0.23771,-0.52689,-0.83055,-1.207,-1.4299,-1.3433,-1.2411,-1.1794,-1.0472,-0.93468,-0.65271,-0.37053,-0.31951,-0.31951
-0.31766,-0.47224,-0.54026,-0.77477,-0.81472,-0.72585,-0.61953,-0.81638,-1.06,-0.86678,-0.50437,-0.31503,-0.1782,-0.13624,-0.081086,0.013475,0.063342,0.16652,0.23404,0.23404,0.73693,0.779,0.779,0.58251,0.37922,0.14974,-0.070583,-0.24902,-0.32935,0.072216,0.65006,0.95577,2.0118,1.7499,2.1819,2.5456,2.7947,2.7947,2.9439,2.9439,2.9502,2.9502,2.9502,2.9356,2.9356,2.9356,3.1902,3.1902,3.2241,3.1134,3.2311,3.4574,3.8137,4.5497,5.2233,5.2233,5.2233,5.5331,5.5331,5.5331,5.592,5.536,5.4427,5.4427,5.4854,5.4854,5.3826,5.2482,5.2482,5.2482,5.3627,5.2019,5.1381,4.9595,4.819,4.7166,4.8738,4.9573,4.8539,4.9405,4.9427,4.8539,4.8069,4.814,4.814,4.7763,4.7763,4.8568,4.8568,4.9212,4.9212,4.9212,4.9212,4.9686,4.9686,4.9686,4.9686,4.9686,4.9686,5.0079,5.0079,5.0079,5.186,5.4648,5.2283,4.4567,4.4567,4.4567,4.4567,4.4567,4.4567,3.8912,3.8912,3.8912,3.8912,3.8912,3.8912,3.4409,3.4409,3.4409,3.4409,3.4409,3.4409,3.004,3.004,3.004,3.004,3.004,2.9161,2.9161,2.7296,2.7296,2.4522,2.4522,2.4522,2.3506,2.3506,2.0275,1.9129,1.8669,1.578,1.3636,1.3252,1.2461,1.3365,1.4353,1.5658,1.7194,2.2266,2.2266,2.6755,2.7426,2.824,2.8037,2.6703,2.5172,2.3342,1.8156,1.2504,0.84955,0.57554,0.21654,0.071465,0.071465,-0.092973,-0.20299,-0.38298,-0.62845,-0.84174,-1.0005,-0.98931,-1.0942,-0.9367,-1.1629,-0.97436,-0.74759,-0.32794,0.017773,0.033407,0.033407
-0.10003,-0.40364,-0.37788,-0.53961,-0.67262,-0.55883,-0.42826,-0.62415,-0.81682,-0.65509,-0.51438,-0.41683,-0.2395,-0.081571,0.19253,0.32688,0.34253,0.43,0.4209,0.55413,0.77695,0.87435,0.87435,0.7211,0.42578,0.1357,-0.20962,-0.40469,-0.3796,-0.17158,0.35456,0.80759,1.2182,1.386,1.6549,2.5456,2.7734,2.7734,2.957,2.957,2.9807,2.9807,2.9807,2.8477,2.8477,2.8477,3.1046,3.1046,3.2142,3.1635,3.2474,3.4361,3.888,4.5415,5.2049,5.2049,5.2049,5.4826,5.4826,5.4826,5.5352,5.614,5.7301,5.7301,5.8277,5.8277,5.5631,5.2119,5.2119,5.2119,5.303,5.4156,5.294,5.0999,4.9419,4.8801,4.9636,5.0777,5.0573,4.9037,4.9372,4.9539,5.0311,5.0508,5.0508,5.0571,5.0571,5.1075,5.1075,5.1605,5.1605,5.1605,5.1605,5.0632,5.0632,5.0632,5.0632,5.0632,5.0012,5.0012,5.0012,5.0012,5.1129,5.148,4.6283,4.1885,4.1885,4.1885,4.1885,3.5167,3.5167,3.5167,3.5167,3.5167,3.5167,3.1048,3.1048,3.1048,3.1048,3.1048,3.1048,3.1048,2.6743,2.6743,2.6743,2.6743,2.6743,2.6743,2.5802,2.5802,2.539,2.539,2.3085,2.3085,2.3085,2.2998,2.2998,2.2679,2.1295,1.9678,1.8018,1.5805,1.5729,1.6006,1.706,1.7722,1.8519,2.1075,2.3579,2.3579,2.5348,2.7006,2.7708,2.7666,2.7171,2.5316,2.3578,1.9628,1.3128,0.90626,0.46595,0.057045,-0.085615,-0.085615,-0.20597,-0.29476,-0.32578,-0.49039,-0.75569,-0.9003,-0.98931,-0.83955,-0.70716,-0.95058,-0.97436,-0.77375,-0.27681,-0.27681,0.241,0.241
0.16182,-0.12599,-0.20933,-0.51025,-0.68315,-0.54217,-0.43105,-0.60925,-0.66345,-0.4492,-0.34385,-0.21355,-0.11671,0.015365,0.28604,0.30431,0.28014,0.48844,0.66207,0.68071,0.71247,0.72537,0.72537,0.6239,0.47911,0.24031,-0.14903,-0.31345,-0.3796,-0.15656,0.27896,0.65819,0.99678,1.2544,1.6549,1.8389,2.1909,2.6579,2.9542,2.9542,2.7683,2.7683,2.7683,2.8319,2.8319,2.8319,3.1505,3.1505,3.1831,3.2316,3.2752,4.104,4.104,4.621,5.1917,5.1917,5.1917,5.5117,5.5117,5.5117,5.6493,5.7377,5.7989,5.7989,5.6815,5.6815,5.608,5.4577,5.4577,5.4577,5.3166,5.3339,5.3165,5.3857,5.3328,5.2879,5.385,5.4396,5.4407,5.2305,5.0427,5.128,5.3069,5.4384,5.4384,5.4766,5.4766,5.4451,5.4451,5.4296,5.4296,5.4296,5.2612,5.2612,5.2612,5.2612,5.2612,5.2612,5.0443,5.0443,5.0443,5.0443,4.9146,4.8338,4.6283,3.8338,3.8338,3.8338,3.2451,3.2451,3.2451,3.2451,3.2451,2.7808,2.7808,2.7808,2.7808,2.7808,2.7808,2.7808,2.7808,2.3652,2.3652,2.3652,2.3652,2.3652,2.3652,2.2318,2.2318,2.2318,2.2863,2.2863,2.0829,2.0829,2.0829,1.9548,1.9548,2.1988,2.1363,2.1413,2.0218,1.7183,1.6947,1.7618,1.8645,1.8783,2.2681,2.2681,2.3579,2.3579,2.5752,2.7407,2.7279,2.6182,2.709,2.5436,2.3733,2.0095,1.3747,0.96213,0.45638,0.10893,0.057523,0.057523,-0.21921,-0.39475,-0.37615,-0.37023,-0.61967,-0.69458,-0.98931,-0.75586,-0.61575,-0.72254,-0.6165,-0.42523,-0.27681,0.16225,0.241,0.241
0.093359,-0.10936,-0.21461,-0.44821,-0.60392,-0.55133,-0.44425,-0.4449,-0.30299,-0.031807,0.063629,0.087174,0.15824,0.17217,0.26248,0.34643,0.30581,0.3781,0.61331,0.69928,0.69832,0.72537,0.49684,0.42174,0.31906,0.15013,-0.079799,-0.30488,-0.13383,0.1416,0.37246,0.55287,0.83077,0.99009,1.0552,1.0552,1.9513,2.4695,2.676,2.676,2.7081,2.7081,2.7081,2.8749,2.8749,2.8749,3.1104,3.1104,3.3627,3.388,3.3379,3.3379,4.2264,4.664,5.0722,5.0722,5.0722,5.4328,5.4328,5.4328,5.7232,5.5772,5.5029,5.5029,5.5539,5.5539,5.6658,5.6519,5.6519,5.6519,5.473,5.4296,5.5381,5.6662,5.7269,5.7423,5.7993,5.7883,5.7908,5.7144,5.4858,5.56,5.587,5.6925,5.6925,5.6998,5.6998,5.6137,5.6137,5.5435,5.5435,5.5435,5.2612,5.2466,5.2466,5.2466,5.2466,5.2466,5.0141,5.0141,5.0141,5.0141,4.9987,4.8345,3.4949,3.4949,3.4949,3.0516,3.0516,3.0516,3.0516,3.0516,3.0516,2.556,2.556,2.556,2.556,2.556,2.556,2.556,2.2372,2.2372,2.2372,2.2372,2.2372,2.2372,2.2372,2.1675,2.1675,2.1675,2.0252,2.0252,1.761,1.761,1.6331,1.6331,1.6331,1.8362,1.9498,1.9741,1.8682,1.6,1.8008,1.926,1.9357,1.864,2.2355,2.445,2.445,2.5959,2.5604,2.5651,2.4712,2.3971,2.4485,2.493,2.3929,1.9987,1.4183,1.0353,0.44639,0.23642,0.025908,-0.21439,-0.34281,-0.45919,-0.4042,-0.61095,-0.56503,-0.6104,-0.6104,-0.64045,-0.42527,-0.3369,0.0075407,0.11108,0.11108,0.11108,0.42789,0.42789
0.12272,-0.097492,-0.18432,-0.34566,-0.51861,-0.35454,-0.34361,-0.33076,-0.067433,0.19573,0.30144,0.25665,0.28338,0.16848,0.12537,0.30888,0.36043,0.48207,0.68492,0.63226,0.64963,0.64963,0.54324,0.51816,0.33555,0.24339,0.17435,-0.10984,0.12982,0.2681,0.4191,0.63296,0.62319,0.73131,0.96248,1.4025,1.778,2.2659,2.4877,2.4877,2.7937,2.7937,2.7937,3.1888,3.1888,3.1888,3.3333,3.3333,3.3844,3.5059,3.8625,4.4275,4.4275,4.6903,5.0722,5.0808,5.0808,5.3746,5.3746,5.3746,5.6706,5.5486,5.5486,5.4326,5.4326,5.7461,5.8003,5.7698,5.7698,5.7698,5.7106,5.6365,5.7173,5.9841,6.2811,6.1433,6.0838,6.0663,6.0394,5.895,5.9124,5.9296,5.8449,5.9223,5.9223,5.8366,5.8366,5.7077,5.7077,5.6892,5.6892,5.6892,5.6892,5.3661,5.3661,5.3661,5.3661,5.3661,5.3661,4.9979,4.9979,4.9979,4.8732,4.0254,3.4359,3.4359,2.8727,2.8727,2.8727,2.8727,2.8727,2.8727,2.3646,2.3646,2.3646,2.3646,2.3646,2.3646,2.3646,2.3646,2.1003,2.1003,2.1003,2.1003,2.1003,2.1003,2.1003,2.0371,2.0371,2.0371,1.8605,1.8605,1.5583,1.5583,1.4964,1.4964,1.4964,1.6957,1.8136,1.7285,1.5815,1.3598,1.517,1.8003,1.8919,1.9055,2.2355,2.445,2.3513,2.5153,2.5388,2.3845,2.3933,2.3456,2.2948,2.4897,2.2913,1.8752,1.3312,0.88293,0.34056,0.13449,-0.11226,-0.37997,-0.52147,-0.64106,-0.9068,-0.76732,-0.58433,-0.45515,-0.39967,-0.39967,-0.14113,0.46643,0.61069,0.65081,0.7705,0.6686,0.61945,0.61945
0.15932,-0.057812,-0.16402,-0.2691,-0.42287,-0.32876,-0.3552,-0.30626,0.083008,0.30155,0.40521,0.42611,0.29102,0.16228,0.25645,0.36745,0.41611,0.47425,0.64172,0.76546,0.88987,0.9004,0.9004,0.83394,0.74396,0.61992,0.4812,0.18567,0.28766,0.37786,0.46287,0.68026,0.62787,0.75879,1.1023,1.5726,1.8395,1.8395,2.5592,2.5592,2.8765,2.8765,2.8765,3.1004,3.1004,3.1004,3.1968,3.1968,3.2366,3.4209,3.9365,4.4948,4.8692,4.8692,5.2215,5.2215,5.2215,5.4731,5.4731,5.4731,5.6706,5.5486,5.3734,5.4434,5.4434,5.6575,5.691,5.7698,5.7673,5.7673,5.8192,5.8382,6.0123,6.2039,6.2785,6.2758,6.2738,6.272,6.2668,6.2667,6.1684,6.2408,6.2068,6.1286,6.1286,5.9755,5.9755,5.8067,5.8067,5.5758,5.5758,5.5758,5.5758,5.3966,5.3966,5.3966,5.3966,5.3966,5.3966,4.8722,4.8722,4.8722,4.6139,3.8713,3.3575,2.6967,2.6967,2.6967,2.6967,2.6967,2.6967,2.6967,2.1896,2.1896,2.1896,2.1896,2.1896,2.1896,2.1896,2.1896,1.7709,1.7709,1.7709,1.7709,1.7709,1.7709,1.7709,1.7439,1.7439,1.597,1.597,1.2918,1.2918,1.2918,1.3715,1.3715,1.3715,1.5239,1.5252,1.4843,1.3541,1.2719,1.451,1.6602,1.8104,1.9361,1.9519,2.445,2.1541,2.2575,2.2092,2.2092,2.3512,2.3082,2.3911,2.2835,2.133,1.7199,1.1258,0.77375,0.21262,-0.1353,-0.22198,-0.45319,-0.70984,-0.98326,-1.0141,-0.7458,-0.51875,-0.36568,-0.38276,-0.12539,0.18715,0.67174,0.90039,1.0081,1.0446,0.81161,0.69653,0.69653
0.10842,-0.18355,-0.25811,-0.27078,-0.28573,-0.15937,-0.18702,-0.056729,0.36413,0.4822,0.51894,0.53409,0.3063,0.23149,0.33897,0.29223,0.34122,0.42325,0.48688,0.79599,1.0359,1.0697,0.99983,0.99983,0.94924,0.83215,0.66533,0.34036,0.28766,0.37786,0.46287,0.68026,0.62787,0.75879,1.1023,1.5726,1.8395,2.1423,2.5647,2.5647,2.8765,2.8765,2.8765,3.1004,3.1004,3.1004,3.1968,3.1968,3.2366,3.4209,3.9365,4.4948,4.8692,4.8692,5.3429,5.3429,5.3429,5.7259,5.7259,5.7259,5.4713,5.2361,5.3388,5.5504,5.5504,5.5756,5.5385,5.5385,5.7127,5.7127,5.9441,6.0413,6.2269,6.2687,6.2733,6.2702,6.2602,6.2604,6.2623,6.2716,6.2569,6.2326,6.2152,6.1812,6.1812,6.0549,6.0549,5.8428,5.8428,5.4828,5.4828,5.4828,5.4828,5.2501,5.2501,5.2501,5.2501,5.2501,5.2501,4.9338,4.9338,4.9338,4.7081,3.8713,2.9428,2.6967,2.4484,2.4484,2.4484,2.4484,2.4484,2.4484,2.1896,1.9896,1.9896,1.9896,1.9896,1.9896,1.9896,1.9896,1.6652,1.6652,1.6652,1.6652,1.6652,1.6652,1.6652,1.4844,1.4844,1.2886,1.2886,1.2918,1.2918,1.2918,1.3715,1.3715,1.3715,1.5239,1.5252,1.4843,1.3541,1.2719,1.451,1.6602,1.8104,1.9361,1.9519,1.9193,2.1541,2.2575,2.2092,2.263,2.1671,2.0526,2.0812,1.9007,1.7625,1.4424,0.89199,0.1816,-0.29716,-0.47223,-0.47223,-0.58576,-0.93452,-1.2234,-1.0141,-0.7458,-0.51875,-0.36568,-0.38276,-0.12539,0.18715,0.67174,0.90039,1.0081,1.0446,0.81161,0.69653,0.69653
-5.2288e-05,-0.22333,-0.26933,-0.32546,-0.25479,-0.073154,-0.024377,0.17034,0.49877,0.63107,0.70872,0.59177,0.27059,0.15965,0.13287,0.064595,0.17909,0.38174,0.34184,0.66368,0.83453,0.84466,0.99983,0.83713,0.81326,0.82902,0.73867,0.44863,0.40388,0.59032,0.71662,0.87227,0.84682,0.81278,1.191,1.6895,2.0326,2.2173,2.5776,2.5776,2.8882,2.8882,2.8882,2.9831,2.9831,2.9831,2.9508,2.9508,3.0224,3.2153,3.8531,4.364,4.815,4.815,5.3429,5.2487,5.2487,5.5285,5.5285,5.5285,5.4476,5.4109,5.4016,5.4817,5.4817,5.6308,5.7111,5.7111,5.876,5.876,6.0098,6.1873,6.2556,6.2605,6.268,6.2694,6.263,6.2628,6.2661,6.2653,6.2528,6.2262,6.2013,6.1723,6.1723,6.1045,6.1045,5.7682,5.7682,5.4903,5.4903,5.4903,5.4903,5.2422,5.2422,5.2422,5.2422,5.2422,5.2422,4.9799,4.9799,4.9799,4.2458,3.5509,2.9428,2.6967,2.4484,2.4484,2.4484,2.4484,2.4484,2.4484,2.1896,1.9896,1.9896,1.9896,1.9896,1.9896,1.9896,1.9896,1.6652,1.6652,1.6652,1.6652,1.6652,1.6652,1.6652,1.4844,1.4844,1.2886,1.2886,1.0818,1.0818,1.0818,1.1996,1.1996,1.1996,1.2163,1.2163,1.2169,1.1714,1.1784,1.3525,1.5954,1.748,1.8134,1.7759,1.8389,1.8846,1.9376,1.8466,1.8468,1.8815,1.9261,1.7869,1.4515,1.345,1.1247,0.71419,0.10908,-0.26937,-0.47223,-0.42589,-0.66404,-1.0549,-1.1628,-0.95193,-0.69326,-0.40842,-0.25584,-0.25625,-0.1471,0.13238,0.71501,0.96123,1.0708,1.2296,1.1512,0.92463,0.92463
-0.16116,-0.22338,-0.12657,-0.11647,-0.045984,0.11827,0.11304,0.243,0.51341,0.6676,0.83877,0.66347,0.26467,0.17174,0.15788,0.17624,0.16576,0.23281,0.34355,0.45466,0.64369,0.64369,0.6287,0.67436,0.65498,0.63008,0.49471,0.45746,0.59021,0.86101,1.0507,1.3476,1.388,1.2327,1.4256,1.709,1.9298,2.0938,2.5323,2.5323,2.8102,2.8102,2.8102,2.7185,2.7185,2.7185,2.5673,2.5673,2.6485,2.9002,3.8112,3.8112,3.4789,3.4789,3.7392,4.1445,4.1445,5.0623,5.0623,5.0623,5.095,5.326,5.135,5.3516,5.3516,5.6855,5.8141,5.8141,5.9721,5.9721,6.1159,6.2447,6.2467,6.2528,6.2593,6.2726,6.2672,6.2645,6.2612,6.2607,6.2527,6.2245,6.2014,6.1703,6.1703,5.8976,5.8976,5.6179,5.6179,5.2541,5.2541,5.2541,5.2541,5.0236,5.0236,5.0236,5.0236,5.0236,5.0236,4.7899,4.7899,4.7899,4.1046,3.5794,2.8613,2.8613,2.1922,2.1922,2.1922,2.1922,2.1922,2.1922,2.1922,1.7698,1.7698,1.7698,1.7698,1.7698,1.7698,1.7698,1.5406,1.5406,1.5406,1.5406,1.5406,1.5406,1.3276,1.3276,1.3276,1.0827,1.0827,0.95278,0.95278,0.95278,1.028,1.028,1.028,0.93999,0.7651,0.7651,0.93032,1.1306,1.3487,1.4649,1.7041,1.6666,1.6553,1.9404,1.8715,1.7507,1.7507,1.5125,1.6316,1.7231,1.4251,1.264,1.0963,0.94339,0.59899,-0.12745,-0.56235,-0.67295,-0.67295,-0.80154,-0.99484,-0.98979,-0.88614,-0.59304,-0.19648,-0.11734,-0.16015,-0.11903,0.17558,0.73066,0.89806,0.98164,1.2683,1.2693,0.99869,0.99869
0.038226,-0.04329,0.03218,0.16853,0.28763,0.35766,0.37097,0.44887,0.67143,0.7576,0.83208,0.77576,0.64855,0.58146,0.47859,0.40871,0.3006,0.19605,0.22877,0.39346,0.64369,0.32526,0.43068,0.46207,0.36851,0.41313,0.46429,0.72378,0.99876,1.2244,1.8258,1.8258,1.6985,1.4792,1.5222,1.6505,1.7176,1.9165,2.2755,2.2755,2.4982,2.4982,2.4982,2.5541,2.5541,2.5541,2.5673,2.5673,2.6485,2.9002,3.8112,3.3616,3.4789,3.4789,3.7392,4.1445,4.1445,4.5811,4.5811,4.5811,4.8033,4.9578,5.1003,5.4231,5.4231,5.7731,6.0608,6.0608,6.2109,6.2109,6.2356,6.2412,6.2482,6.2482,6.2528,6.2662,6.2716,6.26,6.2524,6.2527,6.246,6.2222,6.1963,5.9522,5.9522,5.8976,5.5739,5.254,5.254,4.924,4.924,4.924,4.924,4.8119,4.8119,4.8119,4.8119,4.8119,4.8119,4.7673,4.7673,4.7673,4.1046,3.2699,2.5807,2.5807,2.1922,2.0469,2.0469,2.0469,2.0469,2.0469,2.0469,1.739,1.739,1.739,1.739,1.739,1.739,1.739,1.6108,1.6108,1.6108,1.6108,1.6108,1.6108,1.6108,1.3311,1.3311,1.0929,1.0929,1.0929,1.0929,1.0929,1.028,1.028,1.028,0.93999,0.7651,0.7651,0.78054,0.99864,1.2338,1.5567,1.6862,1.6481,1.718,1.8577,1.8752,1.7675,1.7675,1.5643,1.42,1.3132,1.087,0.93061,0.78755,0.58492,-0.020163,-0.45081,-0.7913,-0.82855,-0.82855,-0.82108,-0.88358,-0.84875,-0.7058,-0.40515,-0.17338,-0.15105,-0.16746,-0.010787,0.29218,0.68663,0.85932,0.92342,1.1984,1.2693,1.2507,1.155
0.1757,0.031333,0.021052,0.21648,0.52404,0.62043,0.6694,0.70297,0.89135,0.94981,0.96431,1.0915,1.0489,0.7906,0.66508,0.5799,0.45971,0.26023,0.024289,0.39346,0.13185,0.22495,0.31144,0.44701,0.43388,0.3914,0.5887,0.94906,1.2592,1.7222,1.9892,1.9892,1.9011,1.6929,1.6008,1.6248,1.6558,1.8001,2.1267,2.1267,2.3505,2.3505,2.3505,2.4717,2.4717,2.4717,2.581,2.581,2.6429,2.7995,2.9452,2.8725,3.2764,3.2764,3.4333,3.6366,3.6366,4.2452,4.2452,4.2452,4.5685,4.8761,5.2079,5.5021,5.5021,5.8853,6.1409,6.1409,6.2095,6.2095,6.2149,6.2307,6.2451,6.2461,6.2476,6.251,6.2497,6.2484,6.2411,6.2361,6.2278,6.2155,6.1925,5.8969,5.8969,5.8969,5.4381,4.9854,4.9854,4.6223,4.6223,4.6223,4.6223,4.595,4.595,4.595,4.595,4.595,4.595,4.5648,4.5648,4.5648,3.8203,3.0656,2.4646,2.4646,2.1922,2.0469,2.0469,2.0469,2.0469,2.0469,2.0469,1.739,1.739,1.739,1.739,1.739,1.739,1.739,1.6108,1.6108,1.6108,1.6108,1.6108,1.6108,1.6108,1.3311,1.3311,1.0929,1.0929,0.99815,0.99815,0.86556,0.86556,0.86556,0.86556,0.93999,1.1775,0.96168,1.1107,1.1821,1.3457,1.4621,1.557,1.4203,1.8771,1.8771,1.8141,1.8122,1.8122,1.1676,0.83917,0.69573,0.53952,0.53952,0.19853,0.10866,-0.2477,-0.5588,-0.6757,-0.6447,-0.6447,-0.77453,-0.88016,-0.81291,-0.62583,-0.23424,-0.02565,0.018287,0.16118,0.27485,0.4178,0.67882,0.86217,1.025,1.2522,1.2522,1.2516,1.2423
0.1757,0.031333,0.021052,0.21648,0.52404,0.62043,0.6694,0.70297,0.89135,0.94981,0.96431,1.0915,1.0489,0.7906,0.66508,0.5799,0.45971,0.26023,0.024289,0.39346,0.13185,0.22495,0.31144,0.44701,0.43388,0.3914,0.5887,0.94906,1.2592,1.7222,1.9892,1.9892,1.9011,1.6929,1.6008,1.6248,1.6558,1.8001,2.1267,2.1267,2.3505,2.3505,2.3505,2.4717,2.4717,2.4717,2.581,2.581,2.6429,2.7995,2.9452,2.8725,3.2764,3.2764,3.4493,3.6366,3.6366,4.0761,4.0761,4.0761,4.5685,4.8761,5.2079,5.5021,5.5021,5.8853,6.1409,6.1409,6.2095,6.2095,6.2149,6.2307,6.2451,6.2461,6.2476,6.251,6.2497,6.2484,6.2411,6.2361,6.2278,6.2155,6.1925,5.8969,5.8969,5.8969,5.4381,4.9854,4.9854,4.6223,4.6223,4.6223,4.6223,4.595,4.595,4.595,4.595,4.595,4.595,4.5648,4.5648,4.082,3.6549,3.0656,2.4646,2.4646,2.1922,2.0469,2.0469,2.0753,2.0753,2.0753,2.0753,1.739,1.8772,1.8772,1.8772,1.8772,1.8772,1.8772,1.6108,1.6016,1.6016,1.6016,1.6016,1.6016,1.6016,1.3188,1.3188,1.1036,1.1036,0.99815,0.98339,0.86556,0.86556,0.86556,0.86556,0.93999,1.1775,0.96168,1.1107,1.1821,1.3457,1.4621,1.557,1.4203,1.8771,1.8771,1.8141,1.8122,1.8122,1.1676,0.83917,0.69573,0.53952,0.53952,0.19853,0.10866,-0.2477,-0.5588,-0.6757,-0.6447,-0.6447,-0.77453,-0.88016,-0.81291,-0.62583,-0.23424,-0.02565,0.018287,0.16118,0.27485,0.4178,0.67882,0.86217,1.025,1.2522,1.2522,1.2516,1.2423
0.24615,0.2189,0.24253,0.43566,0.77115,0.95447,1.0072,0.88755,0.90834,0.99739,1.075,1.1355,1.0921,0.96127,0.75581,0.61706,0.49824,0.35152,0.16039,0.16039,0.048098,0.16213,0.42866,0.65898,0.50227,0.43243,0.57818,0.94735,1.3253,1.7222,1.9892,1.747,1.8286,1.7002,1.5673,1.5653,1.5161,1.7405,2.1377,2.1377,2.2656,2.2656,2.2656,2.2776,2.2776,2.2776,2.4303,2.4303,2.5715,2.6035,2.6998,2.7502,2.8442,2.8442,3.1871,3.4559,3.4559,3.8511,3.8511,3.8511,3.8511,4.9272,5.2517,5.6478,5.6478,5.9096,6.1732,6.1732,6.1998,6.1998,6.2063,6.2235,6.2336,6.2344,6.2274,6.2183,6.2183,6.2299,6.227,6.2149,6.1485,6.0948,6.0227,5.6787,5.6787,5.6787,5.2701,4.6684,4.6684,4.3294,4.3294,4.3294,4.2842,4.2842,4.2842,4.2842,4.2842,4.0331,4.0331,4.0331,4.0331,3.6627,3.4745,3.0122,3.0122,2.5001,2.5001,2.0469,2.0469,2.0753,2.0753,2.0753,2.0753,1.739,1.8772,1.8772,1.8772,1.8772,1.8772,1.8772,1.6108,1.6016,1.6016,1.6016,1.6016,1.6016,1.6016,1.3188,1.3188,1.1036,1.1036,0.99815,0.98339,0.86556,0.84625,0.84625,0.84625,1.2228,1.4495,1.2979,1.3292,1.379,1.4896,1.6197,1.5224,1.5078,1.8401,1.7775,1.6479,1.5029,1.3348,0.88753,0.53604,0.38105,0.13733,0.072323,0.1046,-0.015456,-0.25597,-0.50153,-0.67312,-0.6447,-0.62607,-0.7405,-0.94813,-0.80747,-0.55145,-0.20133,0.11358,0.17352,0.19352,0.35746,0.5716,0.73039,0.84309,1.0502,1.2522,1.2474,1.2522,1.2422
0.46363,0.62232,0.72993,0.95001,1.1922,1.3261,1.3871,1.1413,0.92426,0.91713,0.99869,0.95338,0.83241,0.78329,0.5121,0.371,0.26467,0.19203,0.22022,0.22288,0.26383,0.57855,0.66678,0.66678,0.53097,0.61004,0.8708,1.1392,1.4964,1.7006,1.5493,1.4858,1.5534,1.6185,1.408,1.3014,1.288,1.3677,1.7323,1.7323,2.0076,2.0076,2.0076,2.1068,2.1068,2.1068,2.3685,2.3685,2.5866,2.5133,2.6091,2.6573,2.5886,2.5886,2.8227,3.2004,3.2004,3.6451,3.6451,3.6451,4.4316,4.8625,5.2908,5.6964,5.6964,5.9844,6.1813,6.1813,6.1928,6.1928,6.2062,6.2182,6.2109,6.2081,6.1658,6.0949,6.1576,6.1845,6.0883,5.9168,5.7944,5.6789,5.5934,5.347,5.347,5.347,5.0739,4.5415,4.5415,4.2147,4.2147,3.8852,3.8852,3.8852,3.8852,3.8852,3.8852,3.7182,3.7182,3.7182,3.7182,3.5731,3.4745,3.0122,3.0122,2.5001,2.5001,2.5001,2.5001,2.0753,2.2621,2.2621,2.2621,2.2621,2.2621,2.2621,2.1064,2.1064,2.1064,2.1064,2.1064,1.8036,1.8036,1.8036,1.8036,1.8036,1.8036,1.4436,1.4436,1.1036,1.1024,1.1024,0.93589,0.93589,1.1132,1.1132,1.1132,1.4032,1.5687,1.5231,1.4414,1.3763,1.8197,1.8197,1.7172,1.651,1.8142,1.6378,1.6108,1.4975,1.3525,0.91892,0.64889,0.37911,0.093477,0.11477,0.031883,-0.19531,-0.26414,-0.45308,-0.72396,-0.72396,-0.69131,-0.69131,-0.88665,-0.74221,-0.49338,-0.32531,-0.0492,0.15084,0.17622,0.27374,0.47651,0.63191,0.84309,0.74547,0.89529,1.0025,1.1369,1.2167
0.69718,0.96391,1.126,1.2983,1.3981,1.3917,1.3966,1.297,1.0765,0.88529,0.85125,0.74255,0.44526,0.33245,0.10705,-0.031433,0.021678,0.06286,0.17202,0.23383,0.37704,0.60138,0.54246,0.54246,0.56467,0.69894,1.0055,1.2578,1.5019,1.6214,1.5508,1.3816,1.3603,1.2144,1.1037,1.0832,0.58376,0.60211,1.3015,1.3015,1.8056,1.8056,1.8056,2.0497,2.0497,2.0497,1.6607,1.6607,1.9095,1.9095,2.2101,2.2101,2.5886,2.5886,2.6651,3.0451,3.0451,3.3587,3.3587,3.3587,4.0751,4.5772,5.0959,5.5216,5.5216,5.9546,6.1124,6.1124,6.1157,6.1157,6.1839,6.19,6.1826,6.1371,5.9788,6.1208,6.1576,6.1845,6.0883,5.9168,5.7944,5.306,5.3227,5.0236,5.0236,5.0236,4.8649,4.5262,3.8051,3.8051,3.8051,3.5043,3.5043,3.5043,3.5043,3.5043,3.5043,3.4658,3.4658,3.4658,3.4658,3.1919,3.1919,3.0122,2.9094,2.6234,2.6234,2.6234,2.6234,2.6234,2.2621,2.4606,2.4606,2.4606,2.4606,2.4606,2.1064,2.2311,2.2311,2.2311,2.2311,1.8036,1.9916,1.9916,1.9916,1.9916,1.9916,1.6148,1.6148,1.6148,1.2458,1.2458,1.1565,1.1565,1.1132,1.4076,1.4076,1.5452,1.4324,1.5499,1.6197,1.8235,2.1138,1.9431,1.9431,1.6711,1.7411,1.651,1.6789,1.5559,1.3465,0.88906,0.55059,0.47765,0.24876,0.2154,0.21656,0.025409,-0.21363,-0.41975,-0.69993,-0.69993,-0.75493,-0.75493,-0.69633,-0.60595,-0.45864,-0.30938,-0.12555,0.17992,0.31604,0.20735,0.28678,0.36253,0.32374,0.39992,0.39992,0.57309,0.84136,1.0935
0.77589,1.0408,1.2171,1.283,1.2885,1.3942,1.3974,1.4023,1.2246,0.92486,0.68895,0.36347,0.039831,0.04271,-0.1059,-0.1976,-0.077964,-0.089187,-0.048801,0.19831,0.40583,0.49198,0.46823,0.46823,0.60289,0.78857,1.0571,1.387,1.5263,1.562,1.4756,1.2959,1.1292,1.0494,0.91788,0.79757,0.58376,0.60211,1.1097,1.1097,1.538,1.538,1.538,1.7109,1.7109,1.7109,1.6607,1.6607,1.9095,2.1655,2.2101,2.4607,2.6877,2.6877,2.6651,3.0451,3.0451,3.3587,3.3587,3.3587,3.8208,4.2305,5.4544,5.4544,5.4544,5.888,6.0264,6.0264,5.9427,5.9427,5.9427,6.19,5.8781,6.1371,5.8419,6.1208,5.8355,5.8936,5.938,5.8619,5.7341,5.306,5.3083,5.0236,4.8035,4.8035,4.4532,4.1317,3.6142,3.6142,3.6142,3.5043,3.5043,3.5043,3.5043,3.5043,3.5043,3.4658,3.4658,3.4658,3.4658,3.1919,3.1919,3.0266,2.7813,2.6781,2.6781,2.6781,2.6781,2.6781,2.6781,2.6759,2.6759,2.6759,2.6759,2.6759,2.6759,2.3978,2.3978,2.3978,2.3978,2.3978,1.9916,2.1493,2.1493,2.1493,2.1493,2.1493,1.8062,1.8062,1.6638,1.6638,1.5014,1.5014,1.5014,1.5546,1.5546,1.6204,1.642,1.8121,1.8508,2.1034,2.1779,2.1497,1.8909,2.0213,2.0023,1.8912,1.9113,1.6576,1.408,1.0374,0.5276,0.34091,0.25366,0.24269,0.24269,0.025409,-0.14205,-0.30655,-0.30655,-0.504,-0.60038,-0.60038,-0.61376,-0.39919,-0.17286,0.05145,0.25254,0.39718,0.36539,0.18009,0.28678,0.23045,0.070994,0.087518,0.31924,0.31924,0.45174,0.61179
0.77589,1.0408,1.2171,1.283,1.2885,1.3942,1.3974,1.4023,1.2246,0.92486,0.68895,0.36347,0.039831,0.04271,-0.1059,-0.1976,-0.077964,-0.089187,-0.048801,0.19831,0.40583,0.49198,0.46823,0.46823,0.60289,0.78857,1.0571,1.387,1.5263,1.562,1.4756,1.2959,1.1292,1.0494,0.91788,0.79757,0.35993,0.45737,0.83079,0.83079,1.2234,1.2234,1.2234,1.3608,1.3608,1.3608,1.4478,1.4478,1.7116,1.8374,2.0707,2.4607,2.6877,2.6877,2.6651,3.0451,3.0451,3.3587,3.3587,3.3587,3.3974,4.2305,5.4544,5.4544,5.4544,5.888,6.0264,6.0264,5.9427,5.9427,5.9427,6.19,5.8781,6.1371,5.8419,6.1208,5.8355,5.8936,5.938,5.8619,5.7341,5.306,5.3083,5.0236,4.8035,4.8035,4.4532,3.9977,3.6142,3.6142,3.6142,3.5664,3.5664,3.5664,3.5664,3.5664,3.5664,3.192,3.192,3.192,3.192,2.8597,2.8597,3.0266,2.7813,2.6781,2.6781,2.6781,2.6781,2.6781,2.6781,2.6759,2.6759,2.6759,2.6759,2.6759,2.6759,2.3978,2.3978,2.3978,2.3978,2.3978,1.9916,2.1493,2.1493,2.1493,2.1493,2.1493,1.8062,1.8062,1.6638,1.6638,1.5014,1.5014,1.5014,1.5546,1.5546,1.6204,1.642,1.8121,1.8508,2.1034,2.1779,2.1497,1.8909,2.0213,2.0023,1.8912,1.9113,1.6576,1.408,1.0374,0.5276,0.34091,0.25366,0.24269,0.24269,0.025409,-0.14205,-0.30655,-0.30655,-0.504,-0.60038,-0.60038,-0.61376,-0.39919,-0.17286,0.05145,0.25254,0.39718,0.36539,0.18009,0.28678,0.23045,0.070994,0.087518,0.31924,0.31924,0.45174,0.61179
0.69857,0.94001,1.0785,1.1551,1.1182,1.0606,1.2505,1.3147,1.16,0.98812,0.65733,0.15867,-0.11913,-0.099118,-0.12327,-0.15999,-0.17638,-0.25191,-0.22105,0.19831,0.20638,0.26264,0.46823,0.23771,0.42926,0.816,1.0989,1.4161,1.5997,1.5273,1.2771,1.07,0.97935,0.87872,0.7806,0.39972,0.052128,0.082581,0.34872,0.34872,0.82124,0.82124,0.82124,1.0495,1.0495,1.0495,1.0277,1.0277,1.223,1.4524,1.8879,1.8879,2.7219,2.7219,2.8957,2.8482,2.8482,3.1537,3.1537,3.1537,3.3974,4.7365,5.4275,5.4275,5.7393,5.7393,5.8682,5.8682,5.8623,5.8623,5.8623,5.759,5.57,5.5335,5.6276,5.4813,5.531,5.5086,5.4414,5.5932,5.6392,5.468,5.2414,4.5784,4.5784,4.3142,4.3142,3.8124,3.5844,3.5844,3.5844,3.5844,3.5844,3.5844,3.5844,3.5844,3.5844,3.5844,3.5844,3.192,3.192,2.8597,2.8597,2.7965,2.7404,2.8222,2.8222,2.8222,2.8222,2.8222,2.8222,2.8361,2.8361,2.8361,2.8361,2.8361,2.8361,2.5087,2.5087,2.5087,2.5087,2.5087,2.5087,2.2374,2.2374,2.2374,2.2374,2.2374,1.9848,1.9848,1.8331,1.8331,1.6973,1.6973,1.6973,1.6757,1.6757,1.7784,1.7635,1.897,2.0877,2.1011,2.1597,2.2019,2.1788,2.3012,2.2103,2.101,2.0341,1.8583,1.408,1.0374,0.87095,0.3862,0.20203,0.19815,0.19815,0.22806,-0.029585,-0.12923,-0.12923,-0.26227,-0.41653,-0.41653,-0.38401,-0.23216,0.074178,0.34556,0.64346,0.6596,0.55367,0.18009,0.19261,0.076774,-0.043332,-0.049277,0.066733,0.066733,0.0088934,0.04465
0.69857,0.94001,1.0785,1.1551,1.1182,1.0606,1.2505,1.3147,1.16,0.98812,0.65733,0.15867,-0.11913,-0.099118,-0.12327,-0.15999,-0.17638,-0.25191,-0.22105,0.19831,0.20638,0.26264,0.46823,0.23771,0.42926,0.816,1.0989,1.4161,1.5997,1.5273,1.2771,1.07,0.97935,0.87872,0.7806,0.15864,0.052128,0.082581,0.34872,0.34872,0.82124,0.82124,0.82124,1.0495,1.0495,1.0495,1.0277,1.0277,1.223,1.4524,1.8879,2.3316,2.6274,2.6274,2.6274,2.7749,2.7749,2.9134,2.9134,2.9134,2.9134,4.7365,5.4275,5.4275,5.7393,5.7393,5.8682,5.8682,5.8623,5.8623,5.8623,5.759,5.57,5.5335,5.6276,5.4813,5.531,5.5086,5.4414,5.5932,5.6392,5.468,5.2414,4.5784,4.5784,4.3142,4.3142,3.8124,3.5844,3.5844,3.5844,3.5844,3.2736,3.2736,3.2736,3.2736,3.2736,3.2736,2.9578,2.9578,2.9578,2.9578,2.9578,2.7965,2.7404,2.8222,2.8222,2.8222,2.8222,2.8222,2.8222,2.8361,2.8361,2.8361,2.8361,2.8361,2.8361,2.5087,2.5087,2.5087,2.5087,2.5087,2.5087,2.2374,2.2374,2.2374,2.2374,2.2374,1.9848,1.9848,1.8331,1.8331,1.6973,1.6973,1.6973,1.6757,1.6757,1.7784,1.7635,1.897,2.0877,2.1011,2.1597,2.2019,2.1788,2.3012,2.2103,2.101,2.0341,1.8583,1.408,1.0374,0.87095,0.3862,0.20203,0.19815,0.19815,0.22806,-0.029585,-0.12923,-0.12923,-0.26227,-0.41653,-0.41653,-0.38401,-0.23216,0.074178,0.34556,0.64346,0.6596,0.55367,0.18009,0.19261,0.076774,-0.043332,-0.049277,0.066733,0.066733,0.0088934,0.04465
0.63642,0.94767,0.93092,0.96392,1.005,0.78154,0.82715,0.85001,0.76753,0.81655,0.71598,0.3557,0.057534,0.012744,0.048824,0.0058032,-0.11496,-0.26227,-0.3013,-0.3013,-0.23188,0.19826,0.19826,0.23931,0.49772,0.83928,1.1699,1.4497,1.6198,1.5486,1.1594,0.8068,0.67426,0.58308,0.41428,0.15864,-0.20815,-0.096973,0.037394,0.037394,0.82124,0.3233,0.3233,0.50075,0.50075,0.50075,0.72955,0.72955,1.0692,1.4981,1.78,2.3316,2.6274,2.6274,2.8817,2.7749,2.7749,2.9134,2.9134,2.9134,3.3237,4.6096,5.2061,5.6308,5.6308,5.6308,5.6596,5.542,5.542,5.542,5.542,5.3101,5.1699,5.1537,5.415,5.2708,5.2708,5.2423,5.2155,5.115,5.234,5.1815,4.8778,4.4359,4.4359,3.903,3.903,3.4587,3.1775,3.1775,3.1775,3.1775,3.2736,3.2736,3.2736,3.2736,3.2736,3.2736,2.9578,2.9578,2.9578,2.9578,2.8081,2.7984,2.7177,2.777,2.777,2.777,2.777,2.777,2.777,2.6828,2.6828,2.6828,2.6828,2.6828,2.6828,2.3959,2.3959,2.3959,2.3959,2.3959,2.3959,2.1972,2.1972,2.1972,2.1972,2.1972,2.0472,2.0472,1.7496,1.7496,1.7005,1.7005,1.7005,1.7886,1.7886,1.7144,1.8617,1.9034,2.1196,2.0712,2.1941,2.298,2.3159,2.3529,2.2492,2.1399,1.9407,1.901,1.901,1.7558,1.4371,1.1086,0.31829,0.12131,0.12131,-0.010443,0.053742,0.053742,-0.005269,-0.014069,-0.031285,-0.031285,-0.045235,-0.071488,0.21272,0.3434,0.3434,0.53193,0.55883,0.5444,0.55823,0.2057,-0.24129,-0.25109,-0.25109,-0.24016,-0.26485,-0.13057
0.58773,0.91897,0.95958,0.94709,0.82961,0.65128,0.58048,0.57854,0.56709,0.53091,0.64516,0.52612,0.1865,0.12153,0.21472,0.15627,-0.12218,-0.35615,-0.40164,-0.40164,-0.43558,0.15737,0.15737,0.24939,0.47649,0.76381,1.1512,1.4265,1.5746,1.4554,1.093,0.76657,0.43899,0.27692,0.1431,-0.049766,-0.20815,-0.096973,0.037394,0.037394,0.82124,0.3233,0.3233,0.50075,0.50075,0.50075,0.72955,0.72955,1.0692,1.4981,1.78,2.2157,2.6062,2.6062,2.9004,2.821,2.821,2.9195,2.9195,2.9195,3.3057,4.2482,4.7651,5.6308,5.6308,5.6308,5.6596,5.2171,5.2171,5.2171,5.2171,5.0344,4.7817,4.7049,5.0646,5.2708,4.9886,4.9654,4.8924,4.6604,4.8537,4.6933,4.2884,4.0224,4.0224,3.903,3.903,3.4587,3.1775,3.1775,3.1775,3.1775,3.2736,3.1257,3.1257,3.1257,3.1257,3.1257,2.9578,2.8217,2.8217,2.8217,2.7475,2.6446,2.4582,2.4463,2.4463,2.4463,2.4463,2.4463,2.4463,2.3296,2.3296,2.3296,2.3296,2.3296,2.3296,2.1807,2.1807,2.1807,2.1807,2.1807,2.1807,2.1605,2.1605,2.1605,2.1605,2.1605,1.886,1.886,1.6556,1.6556,1.6347,1.6347,1.6347,1.8045,1.8045,1.7395,1.8,1.8813,1.9509,1.882,2.0726,2.3108,2.348,2.2777,2.1414,2.0852,1.9411,1.8837,1.5866,1.5866,1.3333,1.1692,0.31829,0.12131,-0.040171,-0.010443,0.053742,-0.0066517,0.051919,0.20087,0.2795,0.2795,0.048985,-0.042232,0.24539,0.42541,0.42541,0.43375,0.37866,0.32674,0.37352,0.27686,-0.24129,-0.25109,-0.37832,-0.44925,-0.42459,-0.22142
0.58773,0.91897,0.95958,0.94709,0.82961,0.65128,0.58048,0.57854,0.56709,0.53091,0.64516,0.52612,0.1865,0.12153,0.21472,0.15627,-0.12218,-0.35615,-0.40164,-0.40164,-0.43558,0.15737,0.15737,0.24939,0.47649,0.76381,1.1512,1.4265,1.5746,1.4554,1.093,0.76657,0.43899,0.27692,0.1431,-0.049766,-0.20815,-0.096973,0.037394,0.037394,0.82124,0.3233,0.3233,0.50075,0.50075,0.50075,0.72955,0.72955,1.0692,1.4981,1.78,2.2157,2.6062,2.6062,2.9004,2.821,2.821,2.9195,2.9195,2.9195,3.3057,4.2482,4.7651,5.6308,5.6308,5.2804,5.2804,5.2171,5.2171,5.2171,5.2171,5.0344,4.7817,4.7049,5.0646,5.2708,4.9886,4.9654,4.8924,4.6604,4.8537,4.6933,4.2884,4.0224,4.0224,3.903,3.903,3.4587,3.1775,3.1775,3.1775,3.1775,3.2736,3.1257,3.1257,3.1257,3.1257,3.1257,2.9578,2.8217,2.8217,2.8217,2.7475,2.6446,2.4582,2.4463,2.4463,2.4463,2.4463,2.4463,2.4463,2.3296,2.3296,2.3296,2.3296,2.3296,2.3296,2.1807,2.1807,2.1807,2.1807,2.1807,2.1807,2.1605,2.1605,2.1605,2.1605,2.1605,1.886,1.886,1.6556,1.6556,1.6347,1.6347,1.6347,1.8045,1.8045,1.7395,1.8,1.8813,1.9509,1.882,2.0726,2.3108,2.348,2.2777,2.1414,2.0852,1.9411,1.8837,1.5866,1.5866,1.3333,1.1692,0.31829,0.12131,-0.040171,-0.010443,0.053742,-0.0066517,0.051919,0.20087,0.2795,0.2795,0.048985,-0.042232,0.24539,0.42541,0.42541,0.43375,0.37866,0.32674,0.37352,0.27686,-0.24129,-0.25109,-0.37832,-0.44925,-0.42459,-0.22142
0.58773,0.91897,0.95958,0.94709,0.82961,0.65128,0.58048,0.57854,0.56709,0.53091,0.64516,0.52612,0.1865,0.12153,0.21472,0.15627,-0.12218,-0.35615,-0.40164,-0.40164,-0.43558,0.15737,0.15737,0.24939,0.47649,0.76381,1.1512,1.4265,1.5746,1.4554,1.093,0.76657,0.43899,0.27692,0.1431,-0.049766,-0.20815,-0.15554,-0.045548,-0.045548,-0.045548,0.0016604,0.0016604,0.22195,0.22195,0.22195,0.46198,0.46198,0.8349,0.8349,1.78,2.2157,2.6062,2.6062,2.9004,2.821,2.821,2.9195,2.9195,2.9195,3.3057,4.2482,4.7651,5.2183,5.2183,5.2804,5.2804,5.2171,5.2171,5.2171,5.2171,5.0344,4.7817,4.7049,5.0646,5.2708,4.9886,4.9654,4.8924,4.6604,4.8537,4.6933,3.7867,3.4783,3.4783,3.3871,3.3871,3.0275,3.0275,3.0275,3.0275,3.0275,3.2736,3.1257,3.1257,3.1257,3.1257,3.1257,2.9578,2.8217,2.8217,2.8217,2.7475,2.6446,2.4582,2.4463,2.4463,2.4463,2.4463,2.4463,2.4463,2.3296,2.3296,2.3296,2.3296,2.3296,2.3296,2.1807,2.1807,2.1807,2.1807,2.1807,2.1807,2.1605,2.1605,2.1605,2.1605,2.1605,1.886,1.886,1.6556,1.6556,1.6347,1.6347,1.6347,1.8045,1.8045,1.7395,1.8,1.8813,1.9509,1.882,2.0726,2.3108,2.348,2.2777,2.1414,2.0852,1.9411,1.8837,1.5866,1.5866,1.3333,1.1692,0.31829,0.12131,-0.040171,-0.010443,0.053742,-0.0066517,0.051919,0.20087,0.2795,0.2795,0.048985,-0.042232,0.24539,0.42541,0.42541,0.43375,0.37866,0.32674,0.37352,0.27686,-0.24129,-0.25109,-0.37832,-0.44925,-0.42459,-0.22142
0.37926,0.69039,0.86473,0.8912,0.63805,0.54869,0.45321,0.49954,0.70166,0.64765,0.54364,0.28694,-0.022393,-0.036807,0.051712,-0.047703,-0.25318,-0.28436,-0.29158,-0.29158,-0.25798,0.023164,0.023164,0.18387,0.37513,0.52166,0.90647,1.3511,1.3195,1.2347,1.0409,0.83328,0.41614,0.16501,0.023878,-0.15988,-0.27295,-0.15554,-0.045548,-0.045548,-0.045548,0.0016604,0.0016604,0.22195,0.22195,0.22195,0.46198,0.46198,0.8349,1.3273,1.8413,2.1927,2.529,2.529,2.8665,2.9965,2.9965,3.0095,3.0095,3.0095,3.3467,3.8435,4.0976,5.2183,4.4209,4.4209,4.4209,4.7635,4.7635,4.7635,4.7635,4.5905,4.416,4.2314,4.3098,4.6968,4.5806,4.6074,4.3302,4.3302,4.1999,4.0988,3.7867,3.4783,3.4783,3.3871,3.3871,3.0275,2.8046,2.8046,2.8046,2.8046,2.8046,2.7119,2.7119,2.7119,2.7119,2.7119,2.7119,2.5836,2.5836,2.5836,2.6993,2.5755,2.3022,2.222,2.222,2.222,2.222,2.222,2.222,2.1697,2.1697,2.1697,2.1697,2.1697,2.1697,2.0071,2.0071,2.0071,2.0071,2.0071,2.0071,1.7704,1.7704,1.7704,1.7704,1.7704,1.5684,1.5684,1.4488,1.4488,1.4861,1.4861,1.4861,1.5937,1.5937,1.6996,1.7511,1.8058,1.8737,1.9343,2.0518,2.23,2.23,2.2777,2.2728,2.0852,1.9749,1.7106,1.462,1.462,1.1638,0.90578,0.73306,0.38353,0.1797,0.17228,-0.022295,-0.053816,0.17065,0.3054,0.30849,0.30849,0.23632,0.094176,0.35164,0.35164,0.58253,0.44286,0.31734,0.19763,0.079976,0.023713,-0.041972,-0.27071,-0.49741,-0.61655,-0.64677,-0.47365
0.37926,0.69039,0.86473,0.8912,0.63805,0.54869,0.45321,0.49954,0.70166,0.64765,0.54364,0.28694,-0.022393,-0.036807,0.051712,-0.047703,-0.25318,-0.28436,-0.29158,-0.29158,-0.25798,0.023164,0.023164,0.18387,0.37513,0.52166,0.90647,1.3511,1.3195,1.2347,1.0409,0.83328,0.41614,0.16501,0.023878,-0.15988,-0.27295,-0.15554,-0.045548,-0.045548,-0.045548,0.0016604,0.0016604,0.22195,0.22195,0.22195,0.46198,0.46198,0.8349,1.3273,1.8413,2.1927,2.529,2.529,2.8665,2.9965,2.9965,3.0095,3.0095,3.0095,3.3467,3.8435,4.0976,5.2183,4.4209,4.4209,4.6076,4.7635,4.7635,4.7635,4.7635,4.5905,4.416,4.2314,4.3098,4.6968,4.5806,4.6074,4.3302,4.3302,4.1999,4.0988,3.7867,3.4783,3.4783,3.3871,3.3871,3.0275,2.8046,2.8046,2.8046,2.8046,2.8046,2.7119,2.7119,2.7119,2.7119,2.7119,2.7119,2.5836,2.5836,2.5836,2.6993,2.5755,2.3022,2.222,2.222,2.222,2.222,2.222,2.222,2.1697,2.1697,2.1697,2.1697,2.1697,2.1697,2.0071,2.0071,2.0071,2.0071,2.0071,2.0071,1.7704,1.7704,1.7704,1.7704,1.7704,1.5684,1.5684,1.4488,1.4488,1.4861,1.4861,1.4861,1.5937,1.5937,1.6996,1.7511,1.8058,1.8737,1.9343,2.0518,2.23,2.23,2.2777,2.2728,2.0852,1.9749,1.7106,1.462,1.462,1.1638,0.90578,0.73306,0.38353,0.1797,0.17228,-0.022295,-0.053816,0.17065,0.3054,0.30849,0.30849,0.23632,0.094176,0.35164,0.35164,0.58253,0.44286,0.31734,0.19763,0.079976,0.023713,-0.041972,-0.27071,-0.49741,-0.61655,-0.64677,-0.47365
0.37926,0.69039,0.86473,0.8912,0.63805,0.54869,0.45321,0.49954,0.70166,0.64765,0.54364,0.28694,-0.022393,-0.036807,0.051712,-0.047703,-0.25318,-0.28436,-0.29158,-0.29158,-0.25798,0.023164,0.023164,0.18387,0.37513,0.52166,0.90647,1.3511,1.3195,1.2347,1.0409,0.83328,0.41614,0.16501,0.023878,-0.15988,-0.27295,-0.15554,-0.045548,-0.045548,-0.045548,0.0016604,0.0016604,0.22195,0.22195,0.22195,0.46198,0.46198,0.8349,1.3273,1.8413,2.1927,2.529,2.529,2.8665,2.9965,2.9965,3.0095,3.0095,3.0095,3.3467,3.8435,4.0976,5.2183,4.4209,4.4209,4.6076,4.7635,4.7635,4.7635,4.7635,4.5905,4.416,4.2314,4.3098,4.6968,4.5806,4.6074,4.3302,4.3302,4.1999,4.0988,3.7867,3.4783,3.4783,3.3871,3.3871,3.0275,2.8046,2.8046,2.8046,2.8046,2.8046,2.7119,2.7119,2.7119,2.7119,2.7119,2.7119,2.5836,2.5836,2.5836,2.6993,2.5755,2.3022,2.222,2.222,2.222,2.222,2.222,2.222,2.1697,2.1697,2.1697,2.1697,2.1697,2.1697,2.0071,2.0071,2.0071,2.0071,2.0071,2.0071,1.7704,1.7704,1.7704,1.7704,1.7704,1.5684,1.5684,1.4488,1.4488,1.4861,1.4861,1.4861,1.5937,1.5937,1.6996,1.7511,1.8058,1.8737,1.9343,2.0518,2.23,2.23,2.2777,2.2728,2.0852,1.9749,1.7106,1.462,1.462,1.1638,0.90578,0.73306,0.38353,0.1797,0.17228,-0.022295,-0.053816,0.17065,0.3054,0.30849,0.30849,0.23632,0.094176,0.35164,0.35164,0.58253,0.44286,0.31734,0.19763,0.079976,0.023713,-0.041972,-0.27071,-0.49741,-0.61655,-0.64677,-0.47365
0.37926,0.69039,0.86473,0.8912,0.63805,0.54869,0.45321,0.49954,0.70166,0.64765,0.54364,0.28694,-0.022393,-0.036807,0.051712,-0.047703,-0.25318,-0.28436,-0.29158,-0.29158,-0.25798,0.023164,0.023164,0.18387,0.37513,0.52166,0.90647,1.3511,1.3195,1.2347,1.0409,0.83328,0.41614,0.16501,0.023878,-0.15988,-0.27295,-0.25107,-0.2116,-0.2116,-0.13181,-0.13181,-0.13181,-0.047668,-0.047668,-0.047668,0.13093,0.13093,0.44712,1.3273,1.8413,2.1927,2.529,2.529,2.8665,2.9965,2.9965,3.0095,3.0095,3.0095,3.3467,3.8435,4.0976,5.2183,4.4209,4.4209,4.6076,4.7635,4.7635,4.7635,4.7635,4.5905,4.416,4.2314,4.3098,4.6968,4.5806,4.6074,4.3302,4.3302,4.1999,4.0988,3.2265,2.815,2.7407,2.7407,2.7407,3.0275,2.8046,2.8046,2.8046,2.8046,2.8046,2.7119,2.7119,2.7119,2.7119,2.7119,2.7119,2.5836,2.5836,2.5836,2.6993,2.5755,2.3022,2.222,2.222,2.222,2.222,2.222,2.222,2.1697,2.1697,2.1697,2.1697,2.1697,2.1697,2.0071,2.0071,2.0071,2.0071,2.0071,2.0071,1.7704,1.7704,1.7704,1.7704,1.7704,1.5684,1.5684,1.4488,1.4488,1.4861,1.4861,1.4861,1.5937,1.5937,1.6996,1.7511,1.8058,1.8737,1.9343,2.0518,2.23,2.23,2.2777,2.2728,2.0852,1.9749,1.7106,1.462,1.462,1.1638,0.90578,0.73306,0.38353,0.1797,0.17228,-0.022295,-0.053816,0.17065,0.3054,0.30849,0.30849,0.23632,0.094176,0.35164,0.35164,0.58253,0.44286,0.31734,0.19763,0.079976,0.023713,-0.041972,-0.27071,-0.49741,-0.61655,-0.64677,-0.47365
0.32278,0.58086,0.72644,0.80613,0.62757,0.56002,0.49961,0.53815,0.83035,0.7977,0.4614,0.11108,-0.16479,-0.29412,-0.20631,-0.15024,-0.23725,-0.14821,-0.10561,-0.13776,-0.17255,-0.12714,-0.12714,0.058305,0.21374,0.48868,0.67699,0.95915,0.94234,0.83293,0.79692,0.72327,0.31073,0.044248,0.015402,-0.077614,-0.25993,-0.25107,-0.2116,-0.2116,-0.13181,-0.13181,-0.13181,-0.047668,-0.047668,-0.047668,0.13093,0.13093,0.44712,1.1155,1.8145,2.1707,2.4794,2.4794,2.8131,3.0719,3.0719,3.198,3.198,3.198,3.3406,3.8435,4.0976,3.6501,4.4209,3.6899,3.893,4.7635,4.1579,4.1579,4.1579,4.1196,3.9079,3.7174,3.8898,4.099,4.1655,4.0193,3.9403,3.7227,3.7227,3.611,3.2265,2.4231,2.4231,2.4231,2.4231,2.6748,2.8046,2.4583,2.4583,2.4583,2.3975,2.3975,2.3975,2.3975,2.3975,2.3975,2.3975,2.3266,2.3266,2.3266,2.3356,2.2401,2.0811,1.9478,1.9478,1.9478,1.9478,1.9478,1.9478,1.9755,1.9755,1.9755,1.9755,1.9755,1.9755,1.8106,1.8106,1.8106,1.8106,1.8106,1.8106,1.5488,1.5488,1.5488,1.5488,1.5488,1.461,1.461,1.4198,1.4198,1.4531,1.4531,1.4531,1.7775,1.7775,1.7155,1.7693,1.7468,1.8678,1.9438,2.0107,2.1321,2.1321,2.3446,2.2702,2.1572,1.9749,1.4757,1.1859,0.79166,0.65507,0.65507,0.49207,0.2164,0.1056,0.076998,0.053941,0.056771,0.31259,0.44304,0.33234,0.33234,0.46133,0.49344,0.53713,0.53713,0.65604,0.56326,0.41389,0.29986,0.029121,-0.27234,-0.34886,-0.47698,-0.74234,-0.88866,-0.87459,-0.68473
0.32278,0.58086,0.72644,0.80613,0.62757,0.56002,0.49961,0.53815,0.83035,0.7977,0.4614,0.11108,-0.16479,-0.29412,-0.20631,-0.15024,-0.23725,-0.14821,-0.10561,-0.13776,-0.17255,-0.12714,-0.12714,0.058305,0.21374,0.48868,0.67699,0.95915,0.94234,0.83293,0.79692,0.72327,0.31073,0.044248,0.015402,-0.077614,-0.25993,-0.41345,-0.35092,-0.35092,-0.35092,-0.29084,-0.29084,-0.16882,-0.16882,-0.16882,-0.051452,-0.051452,-0.051452,1.1155,1.8145,2.1707,2.4794,2.4794,2.8131,3.0719,3.0719,3.198,3.198,3.198,3.3406,3.8435,4.0976,3.6501,4.4209,3.6899,3.893,4.7635,4.1579,4.1579,4.1579,4.1196,3.9079,3.7174,3.8898,4.099,4.1655,4.0193,3.4428,3.4428,3.7227,3.611,2.7049,2.4231,2.4231,2.3014,2.3014,2.6748,2.8046,2.4583,2.4583,2.4583,2.3975,2.3975,2.3975,2.3975,2.3975,2.3975,2.3975,2.3266,2.3266,2.3266,2.3356,2.2401,2.0811,1.9478,1.9478,1.9478,1.9478,1.9478,1.9478,1.9755,1.9755,1.9755,1.9755,1.9755,1.9755,1.8106,1.8106,1.8106,1.8106,1.8106,1.8106,1.5488,1.5488,1.5488,1.5488,1.5488,1.461,1.461,1.4198,1.4198,1.4531,1.4531,1.4531,1.7775,1.7775,1.7155,1.7693,1.7468,1.8678,1.9438,2.0107,2.1321,2.1321,2.3446,2.2702,2.1572,1.9749,1.4757,1.1859,0.79166,0.65507,0.65507,0.49207,0.2164,0.1056,0.076998,0.053941,0.056771,0.31259,0.44304,0.33234,0.33234,0.46133,0.49344,0.53713,0.53713,0.65604,0.56326,0.41389,0.29986,0.029121,-0.27234,-0.34886,-0.47698,-0.74234,-0.88866,-0.87459,-0.68473
0.41837,0.6186,0.73167,0.87918,0.7859,0.76835,0.84936,0.95147,1.0736,0.82319,0.41347,0.12346,-0.033674,-0.16412,-0.19435,-0.098181,-0.20922,-0.1887,-0.17579,-0.20864,-0.10305,-0.07384,-0.07384,0.043145,0.1045,0.18343,0.2348,0.48389,0.45724,0.42677,0.51753,0.50043,0.11476,-0.1102,-0.076157,-0.1262,-0.36581,-0.41345,-0.35092,-0.35092,-0.35092,-0.29084,-0.29084,-0.16882,-0.16882,-0.16882,-0.06119,-0.06119,0.45094,1.0566,1.6103,2.4809,2.4809,2.8587,2.8587,3.0406,3.0406,3.3217,3.3217,3.3217,3.4649,3.3101,3.2729,3.2566,3.2566,3.2488,3.4484,3.4484,3.5726,3.5726,3.5726,3.5589,3.4266,3.3366,3.4245,3.6508,3.6387,4.0193,2.6338,2.5337,2.5337,2.4652,2.7049,2.4231,2.4231,2.3014,2.3014,2.2313,2.2313,2.1684,2.1684,2.1684,2.005,2.005,2.005,2.005,2.005,2.005,1.8993,1.8993,1.8993,1.8993,1.7981,2.0127,1.8681,1.7978,1.7978,1.7978,1.7978,1.7978,1.7978,1.854,1.854,1.854,1.854,1.854,1.854,1.8764,1.8764,1.8764,1.8764,1.8764,1.8764,1.7823,1.7823,1.7823,1.7823,1.7823,1.5835,1.5835,1.4728,1.4728,1.6499,1.6499,1.6499,1.7891,1.7891,1.8541,1.7675,1.6672,1.745,1.8877,1.9663,1.9663,2.1453,2.3323,2.2307,2.0691,2.1396,1.3491,0.96501,0.58776,0.50237,0.50237,0.35323,0.0064755,-0.018855,-0.16196,-0.022975,0.010908,0.25684,0.48855,0.40834,0.40834,0.30332,0.8422,0.75582,0.75582,0.79585,0.76315,0.53878,0.39027,0.16858,-0.23688,-0.61557,-0.89499,-1.1733,-1.3288,-1.1986,-0.94904
0.3966,0.58157,0.67925,0.86633,0.89293,0.94355,1.0678,1.1296,1.0206,0.78046,0.45064,0.081391,-0.040726,0.0073963,0.064715,0.1546,0.052045,-0.081694,-0.20406,-0.30282,-0.15555,0.057329,0.057329,0.005773,0.024225,0.091814,0.22703,0.25097,0.30546,0.18422,0.35207,0.26113,-0.043686,-0.16166,-0.21289,-0.34121,-0.56684,-0.52448,-0.48403,-0.48403,-0.48403,-0.39136,-0.39136,-0.28422,-0.28422,-0.28422,-0.06119,-0.06119,0.56085,1.0304,1.6114,2.5367,2.5367,2.8519,2.8519,2.966,2.966,3.0521,3.0521,3.0521,3.1175,3.174,3.1638,3.14,3.14,3.0898,3.0716,3.0716,2.9813,2.9813,2.9813,2.9992,3.0144,3.0121,2.9822,3.1669,3.11,2.9008,2.6338,2.5337,2.5337,2.4004,2.2958,2.2197,2.2197,2.3014,2.271,2.2313,2.2426,2.0945,2.0945,2.0945,2.005,1.8775,1.8775,1.8775,1.8775,1.8775,1.6509,1.6509,1.6509,1.3944,1.3944,1.6074,1.7282,1.725,1.725,1.725,1.725,1.725,1.725,1.8036,1.8036,1.8036,1.8036,1.8036,1.8036,1.9135,1.9135,1.9135,1.9135,1.9135,1.9135,1.8808,1.8808,1.8808,1.8808,1.8808,1.6797,1.6797,1.7378,1.7378,1.9289,1.9289,1.9289,1.9532,1.9532,2.2301,2.0666,1.8567,1.8946,1.8877,1.9663,2.0192,2.0141,2.0906,2.1166,2.1604,1.4581,1.0355,0.60653,0.23553,0.13754,-0.056556,-0.2382,-0.2382,-0.19112,-0.17057,-0.077206,-0.077444,-0.029487,0.16693,0.28283,0.28283,0.38467,0.98274,0.99276,0.99276,0.90691,0.7984,0.5374,0.24576,0.082229,-0.27615,-0.73564,-1.1628,-1.504,-1.4904,-1.3715,-1.1161
0.3966,0.58157,0.67925,0.86633,0.89293,0.94355,1.0678,1.1296,1.0206,0.78046,0.45064,0.081391,-0.040726,0.0073963,0.064715,0.1546,0.052045,-0.081694,-0.20406,-0.30282,-0.15555,0.057329,0.057329,0.005773,0.024225,0.091814,0.22703,0.25097,0.30546,0.18422,0.35207,0.26113,-0.043686,-0.16166,-0.21289,-0.34121,-0.56684,-0.52448,-0.48403,-0.48403,-0.44622,-0.44622,-0.44622,-0.33508,-0.33508,-0.33508,0.15523,0.15523,0.56085,1.0304,1.6114,2.5367,2.5367,2.8519,2.8519,2.966,2.966,3.0521,3.0521,3.0521,3.1175,3.174,3.1638,3.14,3.14,3.0898,3.0716,3.0716,2.9813,2.9813,2.9813,2.9992,3.0144,3.0121,2.3262,2.3478,2.3348,2.4197,2.249,2.5337,2.2674,2.4004,2.0568,1.9854,1.9854,1.9854,1.9854,2.2313,2.2426,2.0945,2.0945,2.0945,2.005,1.8775,1.8775,1.8775,1.8775,1.8775,1.5567,1.5567,1.5567,1.3944,1.3233,1.3233,1.7282,1.725,1.725,1.725,1.725,1.725,1.725,1.8036,1.8036,1.8036,1.8036,1.8036,1.8036,1.9135,1.9135,1.9135,1.9135,1.9135,1.9135,1.8808,1.8808,1.8808,1.8808,1.8808,1.6797,1.6797,1.7378,1.7378,1.9289,1.9289,1.9289,1.9532,1.9532,2.2301,2.0666,1.8567,1.8946,1.8877,1.9663,2.0192,2.0141,2.0906,2.1166,2.1604,1.4581,1.0355,0.60653,0.23553,0.13754,-0.056556,-0.2382,-0.2382,-0.19112,-0.17057,-0.077206,-0.077444,-0.029487,0.16693,0.28283,0.28283,0.38467,0.98274,0.99276,0.99276,0.90691,0.7984,0.5374,0.24576,0.082229,-0.27615,-0.73564,-1.1628,-1.504,-1.4904,-1.3715,-1.1161
0.5363,0.57086,0.65099,0.87693,0.92556,0.8883,1.0094,1.0236,0.77459,0.64017,0.35361,-0.11409,-0.22199,-0.05159,0.16932,0.34015,0.33713,0.16153,0.011352,-0.061641,-0.035869,0.14092,0.1415,0.1415,0.2009,0.19228,0.27549,0.19918,-0.069311,-0.014689,0.11958,-0.022076,-0.10113,-0.16396,-0.35459,-0.39982,-0.4277,-0.6268,-0.55301,-0.55301,-0.44622,-0.44622,-0.44622,-0.33508,-0.33508,-0.33508,0.15523,0.15523,0.61123,1.0599,1.9853,2.316,2.316,2.6555,2.6555,2.7782,2.7782,2.7491,2.7491,2.7491,2.7148,2.7325,2.7291,2.7841,2.7841,2.7672,2.7002,2.7002,2.0185,2.0185,2.0185,1.8911,2.019,1.9599,1.9184,1.9375,2.3348,2.4197,2.249,2.5337,2.2674,2.4004,1.8667,1.8225,1.8225,1.8225,2.0792,2.0792,2.1863,1.94,1.94,1.94,1.94,1.812,1.812,1.812,1.812,1.812,1.5567,1.5567,1.5567,1.3944,1.3233,1.2867,1.411,1.4988,1.4988,1.4988,1.4988,1.4988,1.4988,1.5455,1.5455,1.5455,1.5455,1.5455,1.5455,1.7076,1.7076,1.7076,1.7076,1.7076,1.7076,1.8515,1.8515,1.8515,1.8515,1.8515,1.7713,1.7713,2.0247,2.0247,2.1497,2.1497,2.1497,2.259,2.259,2.3419,2.2603,2.0008,1.7942,1.7942,1.8272,1.9482,1.8653,1.7772,1.9496,2.058,1.1133,0.74021,0.25176,-0.18925,-0.22631,-0.35063,-0.35063,-0.30727,-0.2923,-0.38843,-0.26843,-0.20925,-0.25388,-0.212,-0.0017261,-0.0017261,0.29188,0.57415,0.99276,0.95309,0.7824,0.65643,0.46287,0.18858,-0.033263,-0.43596,-0.85112,-1.3706,-1.5093,-1.4952,-1.3522,-1.0081
0.49938,0.57249,0.72553,0.87966,0.93568,0.95197,0.92024,0.95157,0.7706,0.53258,0.15813,-0.29279,-0.27599,-0.063806,0.14886,0.29246,0.34003,0.26218,0.16284,0.21832,0.30757,0.34518,0.25423,0.3329,0.3329,0.32578,0.32173,0.24533,-0.075096,-0.12992,-0.12249,-0.11719,-0.14556,-0.099314,-0.075575,-0.24365,-0.34924,-0.42855,-0.43904,-0.43904,-0.31321,-0.31321,-0.31321,-0.078174,-0.078174,-0.078174,0.30464,0.30464,0.92415,1.1859,1.7867,1.9982,1.9982,2.4139,2.4139,2.5496,2.5496,2.5217,2.5217,2.5217,2.4242,2.4323,2.3376,2.3437,2.3437,2.2789,1.9223,1.9223,1.6867,1.6867,1.6867,1.6042,1.6987,1.7891,1.6532,1.6783,1.8034,1.7961,2.1258,2.1174,2.1288,2.0564,1.7003,1.7003,1.7003,1.7003,1.839,1.8237,1.8237,1.5521,1.5521,1.5521,1.5521,1.5485,1.5485,1.5485,1.5485,1.5485,1.5567,1.4442,1.4442,1.4442,1.4551,1.1881,1.2116,1.3453,1.3453,1.3453,1.3453,1.3453,1.3453,1.3785,1.3785,1.3785,1.3785,1.3785,1.3785,1.6284,1.6284,1.6284,1.6284,1.6284,1.6284,1.7026,1.7026,1.7026,1.7026,1.7026,1.792,1.792,2.0547,2.0547,2.2827,2.2827,2.2827,2.3428,2.3428,2.3945,2.2817,2.1119,1.7942,1.7183,1.5432,1.6948,1.666,1.6752,1.7957,1.4698,1.0545,0.65856,0.14017,-0.25893,-0.32374,-0.35063,-0.24409,-0.25428,-0.42229,-0.48499,-0.47437,-0.47524,-0.41894,-0.4064,-0.2846,-0.2846,0.040692,0.34568,0.57325,0.65017,0.48171,0.21852,-0.017574,-0.18896,-0.26237,-0.55483,-1.0941,-1.5119,-1.5087,-1.4951,-1.3731,-0.93746
0.40464,0.59284,0.85381,0.95805,0.86802,0.81782,0.64818,0.69447,0.61042,0.32837,0.085638,-0.16054,-0.17627,-0.10822,0.06431,0.16568,0.29192,0.37551,0.3306,0.3306,0.58205,0.42271,0.16681,0.23837,0.23837,0.31793,0.22701,0.18762,-0.091608,-0.19763,-0.22641,-0.060046,-0.077433,0.028735,0.18286,0.10089,0.083346,-0.031926,-0.18769,-0.18769,-0.016026,-0.016026,-0.016026,0.1823,0.1823,0.1823,0.55168,0.55168,1.1359,1.3591,1.7779,1.9843,1.9843,1.9843,2.2761,2.4228,2.4228,2.2336,2.2336,2.2336,2.2425,2.322,2.2645,2.1578,2.1578,2.0499,1.9223,1.9223,1.5436,1.5436,1.5436,1.4349,1.356,1.441,1.4745,1.4544,1.4913,1.7961,1.977,2.0255,1.9656,2.0614,1.7003,1.7757,1.7757,1.7757,1.761,1.8237,1.7268,1.5513,1.5513,1.5513,1.5513,1.3551,1.3551,1.3551,1.3551,1.3551,1.3551,1.2782,1.2782,1.2782,1.2388,1.164,1.3015,1.443,1.443,1.443,1.443,1.443,1.443,1.4063,1.4063,1.4063,1.4063,1.4063,1.4063,1.5284,1.5284,1.5284,1.5284,1.5284,1.5284,1.4955,1.4955,1.4955,1.4955,1.4955,1.6738,1.6738,2.0006,2.0006,2.2853,2.2853,2.3971,2.3971,2.3971,2.2537,2.1926,2.1926,2.0575,1.8126,1.5512,1.5834,1.452,1.4286,1.3003,1.1712,0.95265,0.48941,0.12339,-0.16883,-0.47266,-0.47266,-0.349,-0.19351,-0.42566,-0.50096,-0.6174,-0.82216,-0.75856,-0.5395,-0.32328,-0.32328,-0.078399,0.14349,0.22425,0.20733,0.075748,-0.25057,-0.52171,-0.63324,-0.58407,-0.75885,-1.2661,-1.4736,-1.4746,-1.5048,-1.3582,-0.87074
0.60099,0.58623,0.82215,1.0112,0.94086,0.76626,0.55295,0.44575,0.29999,0.18843,0.21524,0.15335,-0.039145,-0.09247,-0.023014,0.060831,0.3096,0.51822,0.5874,0.5874,0.64636,0.44997,0.29605,0.36727,0.36727,0.20547,0.13357,0.061907,-0.047269,-0.092527,-0.087946,0.0050977,0.18571,0.15935,0.35416,0.54936,0.65787,0.44504,0.21338,0.21338,0.34135,0.34135,0.34135,0.54132,0.54132,0.54132,0.87376,0.87376,1.2604,1.5598,1.6045,1.7918,1.7918,1.7918,1.9707,2.0715,2.0715,2.0151,2.0151,2.0151,2.0473,2.0284,1.9823,1.8725,1.8725,1.8188,1.6628,1.6628,1.5436,1.5436,1.5436,1.4349,1.356,1.441,1.4745,1.4544,1.4913,1.6878,1.7996,1.9015,1.9535,1.8358,1.5619,1.7146,1.7146,1.7146,1.6713,1.6713,1.5051,1.3391,1.3391,1.3391,1.3391,1.1696,1.1696,1.1696,1.1696,1.1696,1.1696,1.2055,1.2055,1.2055,1.142,1.2124,1.481,1.5738,1.5738,1.5738,1.5738,1.5738,1.5738,1.5079,1.5079,1.5079,1.5079,1.5079,1.5079,1.5375,1.5375,1.5375,1.5375,1.5375,1.5375,1.5195,1.5195,1.5195,1.5195,1.5195,1.7139,1.7139,2.0358,2.0358,2.2037,2.2037,2.2544,2.2544,2.2544,2.2537,2.1926,2.1279,1.9129,1.7308,1.5268,1.4734,1.452,1.3133,1.2933,1.1531,0.90082,0.44102,0.069315,-0.21788,-0.39542,-0.39542,-0.20859,-0.1652,-0.3631,-0.63436,-0.86015,-1.0242,-0.98285,-0.61636,-0.25948,-0.25948,-0.2369,-0.18348,-0.12507,-0.22846,-0.43319,-0.66342,-0.74843,-0.83752,-0.91589,-0.96279,-1.1992,-1.329,-1.3988,-1.4624,-1.2596,-0.85918
0.60099,0.58623,0.82215,1.0112,0.94086,0.76626,0.55295,0.44575,0.29999,0.18843,0.21524,0.15335,-0.039145,-0.09247,-0.023014,0.060831,0.3096,0.51822,0.5874,0.5874,0.64636,0.44997,0.29605,0.36727,0.36727,0.20547,0.13357,0.061907,-0.047269,-0.092527,-0.087946,0.0050977,0.18571,0.15935,0.35416,0.54936,0.65787,0.44504,0.21338,0.21338,0.34135,0.34135,0.34135,0.54132,0.54132,0.54132,0.87376,0.87376,1.2604,1.5598,1.6045,1.7918,1.7918,1.7918,1.9707,2.0715,2.0715,2.0151,2.0151,2.0151,2.0473,2.0284,1.9823,1.8725,1.8725,1.8188,1.6628,1.6628,1.3002,1.3002,1.3002,1.3002,1.3138,1.2251,1.2709,1.2709,1.4913,1.6878,1.7996,1.9015,1.9535,1.8358,1.5619,1.7146,1.7146,1.7146,1.6713,1.6713,1.5051,1.3391,1.3391,1.3391,1.3391,1.1696,1.1696,1.1696,1.1696,1.1696,1.1696,1.2055,1.2055,1.2055,1.142,1.2124,1.481,1.5738,1.5738,1.5738,1.5738,1.5738,1.5738,1.5079,1.5079,1.5079,1.5079,1.5079,1.5079,1.5375,1.5375,1.5375,1.5375,1.5375,1.5375,1.5195,1.5195,1.5195,1.5195,1.5195,1.7139,1.7139,2.0358,2.0358,2.2037,2.2037,2.2544,2.2544,2.2544,2.2537,2.1926,2.1279,1.9129,1.7308,1.5268,1.4734,1.452,1.3133,1.2933,1.1531,0.90082,0.44102,0.069315,-0.21788,-0.39542,-0.39542,-0.20859,-0.1652,-0.3631,-0.63436,-0.86015,-1.0242,-0.98285,-0.61636,-0.25948,-0.25948,-0.2369,-0.18348,-0.12507,-0.22846,-0.43319,-0.66342,-0.74843,-0.83752,-0.91589,-0.96279,-1.1992,-1.329,-1.3988,-1.4624,-1.2596,-0.85918
0.7466,0.58623,0.65951,0.79001,0.9333,0.76626,0.63897,0.42266,0.16756,0.20046,0.32374,0.27425,0.13095,-0.09247,0.1706,0.14902,0.27557,0.37002,0.56298,0.56298,0.56338,0.46562,0.3902,0.38855,0.32707,0.32707,0.36905,0.18094,0.039492,0.027269,-0.068893,0.13033,0.23379,0.3236,0.54854,0.82943,0.91467,0.96423,0.79361,0.79361,0.77639,0.77639,0.77639,0.95387,0.95387,0.95387,1.1916,1.1916,1.3195,1.6982,1.6703,1.6846,1.6846,1.6846,1.6589,1.7107,1.7107,1.8224,1.8224,1.8224,1.7361,1.7168,1.6879,1.0875,1.0875,1.0186,1.0548,1.0548,1.1567,1.1567,1.1567,1.42,1.3138,1.2251,1.2709,1.3384,1.3109,1.4883,1.5514,1.6337,1.6604,1.4541,1.4249,1.3367,1.3367,1.3367,1.3121,1.1581,1.1581,0.98215,0.98215,0.98215,0.98215,0.9862,0.9862,0.9862,0.9862,0.9862,0.9862,1.1351,1.1351,1.1351,1.2303,1.1775,1.5279,1.6935,1.6935,1.6935,1.6935,1.6935,1.6935,1.6592,1.6592,1.6592,1.6592,1.6592,1.6592,1.7591,1.7591,1.7591,1.7591,1.7591,1.7591,1.7417,1.7417,1.7417,1.7417,1.7417,1.941,1.941,2.085,2.085,2.1578,2.1578,2.2544,2.1038,2.1038,1.9129,2.0553,2.088,1.8661,1.6898,1.4665,1.1834,1.3107,1.3133,1.3081,1.1531,0.92666,0.52971,0.22709,-0.12509,-0.12509,-0.20391,-0.21351,-0.24285,-0.47372,-0.74185,-0.95771,-1.0154,-0.92532,-0.62697,-0.36498,-0.36498,-0.38557,-0.27045,-0.20292,-0.39492,-0.59381,-0.66529,-0.71513,-0.92363,-1.1539,-1.0718,-1.2075,-1.3884,-1.4324,-1.3854,-1.1943,-0.90706
0.6691,0.6691,0.73856,0.79001,0.9333,0.84608,0.63897,0.34008,0.048102,0.055599,0.14807,0.29963,0.35495,0.39782,0.40685,0.37637,0.31495,0.34456,0.54643,0.54643,0.52341,0.46643,0.4592,0.57269,0.58303,0.58011,0.58011,0.44043,0.13923,0.19719,0.17021,0.30069,0.34182,0.33477,0.47284,0.73684,1.0132,1.128,1.1618,1.1618,1.1952,1.1952,1.1952,1.23,1.23,1.23,1.3236,1.3236,1.4655,1.6741,1.7373,1.6846,1.6666,1.6666,1.573,1.4306,1.4306,1.4972,1.4972,1.4972,1.5058,1.4811,0.86655,0.73673,0.73673,0.62043,0.7659,0.7659,0.8985,0.8985,0.8985,0.8985,1.3312,0.9095,1.2143,1.2436,0.91798,0.91798,1.2818,1.1651,1.1887,1.165,1.1672,1.1312,1.1312,0.64183,0.64183,0.60426,0.60426,0.60426,0.60426,0.60426,0.60426,0.95945,0.95945,0.95945,0.95945,0.95945,0.95945,1.0624,1.0624,1.0624,1.2667,1.4109,1.5446,1.7141,1.7141,1.7141,1.7141,1.7141,1.7141,1.6767,1.6767,1.6767,1.6767,1.6767,1.6767,1.6347,1.6347,1.6347,1.6347,1.6347,1.6347,1.5946,1.5946,1.5946,1.5946,1.5946,1.947,1.947,1.9619,1.9619,1.8216,1.8216,1.8216,1.8216,1.8216,1.943,2.048,1.911,1.7556,1.7365,1.5067,1.3854,1.377,1.4044,1.2998,0.95066,0.7066,0.37777,0.029709,-0.12402,-0.12402,-0.41146,-0.46457,-0.42697,-0.6021,-0.77749,-0.89171,-1.0268,-0.96392,-0.62342,-0.41703,-0.41703,-0.45529,-0.3846,-0.36313,-0.36313,-0.34898,-0.47307,-0.65514,-0.79922,-1.0808,-1.2391,-1.3921,-1.4309,-1.3085,-1.1414,-0.60891,-0.60891
0.3387,0.43161,0.48884,0.42003,0.5249,0.67758,0.76924,0.34008,0.18734,-0.097825,-0.109,0.18993,0.4859,0.4859,0.58657,0.54007,0.39994,0.47187,0.61571,0.61571,0.53077,0.48843,0.45986,0.61233,0.70154,0.77902,0.7026,0.7026,0.45469,0.39122,0.46739,0.51457,0.3374,0.27602,0.35054,0.55687,0.72836,1.0456,1.2412,1.2412,1.3934,1.3934,1.3934,1.4253,1.4253,1.4253,1.3444,1.3444,1.8386,1.7779,1.5819,1.5819,1.3934,1.3934,1.27,1.0963,1.0963,0.9228,0.9228,0.9228,1.039,1.0334,0.45757,0.3995,0.3995,0.47968,0.54833,0.54833,0.73632,0.73632,0.73632,1.1249,1.0565,0.9095,0.57916,1.0229,0.91798,0.98715,1.1009,0.93669,1.0674,1.0659,0.88198,0.83883,0.83883,0.64183,0.64183,0.60426,0.60426,0.59992,0.59992,0.59992,0.59992,0.65635,0.65635,0.65635,0.65635,0.65635,0.65635,0.75317,0.75317,0.75317,1.0493,1.3569,1.4365,1.5981,1.5981,1.5981,1.5981,1.5981,1.5981,1.6767,1.6767,1.6767,1.6767,1.6767,1.6767,1.6347,1.6347,1.6347,1.6347,1.6347,1.6347,1.5946,1.5946,1.5946,1.5946,1.5946,1.947,1.947,1.9619,1.9619,1.8216,1.8216,1.8216,1.8376,1.8376,1.9515,1.9259,1.7946,1.8867,1.9198,1.6789,1.4509,1.4715,1.3926,1.3527,0.83294,0.57105,0.23735,-0.091609,-0.32592,-0.32592,-0.5745,-0.66476,-0.54327,-0.64534,-0.69782,-0.70555,-0.88376,-0.85683,-0.64679,-0.63368,-0.63368,-0.6188,-0.61824,-0.43582,-0.31317,-0.31317,-0.60099,-0.85825,-0.86751,-0.97272,-1.1716,-1.3621,-1.2884,-1.1178,-0.87778,-0.26526,-0.26526
0.36179,0.36179,0.27845,0.29282,0.36871,0.4711,0.54538,0.56055,0.32458,-0.07329,-0.0073402,0.068986,0.4859,0.29129,0.62829,0.43359,0.28925,0.3967,0.50068,0.50068,0.50008,0.43803,0.45785,0.50154,0.64955,0.77902,0.88756,0.88756,0.67155,0.50949,0.62658,0.60536,0.52247,0.5425,0.47378,0.42182,0.49522,0.82204,1.1788,1.1788,1.2752,1.2752,1.2752,1.3019,1.3019,1.3019,1.3218,1.3218,1.8386,1.7779,1.5819,1.4977,1.1655,1.1655,0.989,1.0083,1.0083,0.87807,0.87807,0.87807,0.84219,0.68351,0.48549,0.3011,0.3011,0.21312,0.54519,0.54519,0.67022,0.67022,0.67022,0.65039,0.87739,0.47845,0.37397,0.44389,0.69781,1.0078,1.1172,0.96044,0.99097,0.82177,0.54919,0.45649,0.45649,0.64183,0.46341,0.52371,0.52371,0.42661,0.42661,0.42661,0.42661,0.42091,0.42091,0.42091,0.42091,0.42091,0.42091,0.65034,0.65034,0.65034,0.85584,1.0525,1.1854,1.2366,1.2366,1.2366,1.2366,1.2366,1.2366,1.1573,1.1573,1.1573,1.1573,1.1573,1.1573,1.2103,1.2103,1.2103,1.2103,1.2103,1.2103,1.2546,1.2546,1.2546,1.2546,1.2546,1.5836,1.5836,1.6333,1.6333,1.6077,1.6077,1.6077,1.7774,1.7774,1.8223,1.8786,1.8933,1.9929,2.0205,1.6374,1.4417,1.3124,1.2405,1.1811,0.74454,0.60023,0.19006,-0.18967,-0.32592,-0.29622,-0.54324,-0.76383,-0.70808,-0.66327,-0.52093,-0.3974,-0.55518,-0.61543,-0.68803,-0.71334,-0.71334,-0.58096,-0.66528,-0.58098,-0.45732,-0.62345,-0.62345,-0.92393,-1.018,-1.0069,-1.064,-1.2941,-1.0408,-1.0408,-0.53505,-0.097634,-0.097634
0.18388,0.26773,0.24621,0.34938,0.37817,0.41657,0.51437,0.40766,0.2493,-0.07329,0.28279,0.081498,-0.044249,0.18675,0.39205,0.25616,0.10174,0.22505,0.34923,0.51575,0.60521,0.63618,0.70579,0.5953,0.5953,0.63031,0.84663,0.84013,0.84013,0.62209,0.61885,0.61878,0.67988,0.64527,0.41619,0.4173,0.39335,0.59665,0.9042,0.9042,1.0499,1.0499,1.0499,1.026,1.026,1.026,1.1706,1.1706,1.4827,1.5716,1.5894,1.4278,1.0573,1.0573,0.92305,0.9688,0.9688,0.81429,0.81429,0.81429,0.64496,0.56005,0.48549,0.28564,0.28564,0.15786,0.4566,0.4566,0.4725,0.4725,0.4725,0.37083,0.25217,0.23686,0.37397,0.44389,0.73351,0.9626,1.1223,0.94562,0.89767,0.5696,0.46815,0.47983,0.47983,0.47983,0.49606,0.36907,0.36907,0.34721,0.34721,0.34721,0.34721,0.52274,0.52274,0.52274,0.52274,0.52274,0.52274,0.71805,0.71805,0.71805,0.85391,0.85864,0.96604,0.90555,0.90555,0.90555,0.90555,0.90555,0.90555,0.93321,0.93321,0.93321,0.93321,0.93321,0.93321,0.93104,0.93104,0.93104,0.93104,0.93104,0.93104,1.1099,1.1099,1.1099,1.1099,1.1099,1.4089,1.4089,1.4555,1.4555,1.5836,1.5836,1.5836,1.8119,1.8119,1.7687,2.0859,2.0678,2.0391,2.0236,1.8204,1.516,1.3989,1.2902,1.1628,0.74454,0.63742,0.18175,-0.32849,-0.32849,-0.45176,-0.60568,-0.87793,-0.77693,-0.54366,-0.4063,-0.29397,-0.40048,-0.48579,-0.6057,-0.46044,-0.46044,-0.5199,-0.55633,-0.51943,-0.40747,-0.46636,-0.68829,-0.68829,-0.78355,-0.9668,-1.1474,-1.3439,-0.98485,-0.84781,-0.60724,-0.06661,-0.06661
0.051565,0.11686,0.1499,0.24813,0.27222,0.15419,0.23598,0.11976,-0.07296,0.046955,0.41665,0.13266,-0.15737,-0.097159,0.022071,-0.043626,-0.051304,-0.047368,0.026602,0.29645,0.54201,0.76691,0.84843,0.7497,0.7497,0.76272,0.88683,0.9504,0.59782,0.59782,0.36183,0.39001,0.48971,0.3833,0.35841,0.13999,0.13999,0.5556,0.80292,0.80292,0.93841,0.93841,0.93841,0.88105,0.88105,0.88105,1.1186,1.1186,1.4747,1.6414,1.5029,1.2296,0.95214,0.95214,0.91753,0.83501,0.83501,0.62478,0.62478,0.62478,0.47077,0.37785,0.38656,0.31963,0.31963,0.26391,0.30071,0.30071,0.43647,0.43647,0.43647,0.25905,0.21897,0.23189,0.25236,0.25236,0.65876,0.94113,0.99005,0.89849,0.6953,0.58174,0.45576,0.50932,0.50932,0.50932,0.51824,0.46387,0.46387,0.52817,0.52817,0.52817,0.52817,0.60317,0.60317,0.60317,0.60317,0.60317,0.60317,0.76548,0.76548,0.76548,0.76597,0.70547,0.61089,0.52858,0.52858,0.52858,0.52858,0.52858,0.52858,0.82911,0.82911,0.82911,0.82911,0.82911,0.82911,0.91629,0.91629,0.91629,0.91629,0.91629,0.91629,1.0928,1.0928,1.0928,1.0928,1.0928,1.5162,1.5162,1.5995,1.5995,1.6843,1.6843,1.6843,1.8513,1.8513,2.003,2.0993,2.0826,2.0589,1.8706,1.6007,1.3148,1.1483,1.1618,1.09,0.8942,0.51707,0.078931,-0.26894,-0.26894,-0.55622,-0.66409,-0.75734,-0.62627,-0.43341,-0.42216,-0.30951,-0.28929,-0.27874,-0.32127,-0.19988,-0.19988,-0.23016,-0.28508,-0.3002,-0.26964,-0.25762,-0.36541,-0.51879,-0.51879,-0.95642,-1.0799,-1.1021,-1.079,-0.90592,-0.45955,-0.10021,-0.10021
-0.39328,-0.42959,-0.45186,-0.37015,-0.46498,-0.52981,-0.41018,-0.41918,-0.21683,-0.087172,0.44227,0.18265,-0.15129,-0.044146,0.0074313,0.0011718,0.020827,-0.22356,-0.22752,0.13286,0.43021,0.75217,0.84856,0.77866,0.81141,0.81141,0.89323,0.96775,0.62739,0.62739,0.38691,0.35484,0.24219,0.0561,0.074862,0.00050943,0.12458,0.26007,0.60002,0.60002,0.95511,0.95511,0.95511,1.0649,1.0649,1.0649,1.2371,1.2371,1.4132,1.5614,1.4785,1.2293,1.1115,1.1115,1.0543,0.82243,0.82243,0.47679,0.47679,0.47679,0.38443,0.41901,0.42225,0.35508,0.35508,0.22431,0.30857,0.30857,0.4943,0.4943,0.4943,0.54632,0.4905,0.43224,0.34964,0.35764,0.73107,0.97959,0.97027,0.94227,0.62755,0.6697,0.53525,0.39382,0.39382,0.39382,0.53346,0.59274,0.59274,0.57973,0.57973,0.57973,0.57973,0.67482,0.67482,0.67482,0.67482,0.67482,0.67482,0.71285,0.71285,0.71285,0.84488,0.81908,0.71008,0.59311,0.59311,0.59311,0.59311,0.59311,0.59311,0.59,0.59,0.59,0.59,0.59,0.59,0.91333,0.91333,0.91333,0.91333,0.91333,0.91333,1.2601,1.2601,1.2601,1.2601,1.2601,1.7176,1.7176,1.8702,1.8702,1.8759,1.8759,1.8759,1.8602,1.8602,2.0957,2.196,2.0076,1.9161,1.5689,1.1924,0.7976,0.4907,0.39673,0.037658,-0.049225,-0.11773,-0.16807,-0.16807,-0.081805,-0.30816,-0.2443,-0.43012,-0.31673,-0.19531,-0.24269,-0.056372,-0.07446,-0.12199,-0.10435,-0.028659,-0.028659,-0.19459,-0.24596,-0.1105,-0.20719,-0.30246,-0.50354,-0.76349,-0.76349,-1.0128,-1.0822,-1.0585,-0.98726,-0.82747,-0.37278,0.032685,0.032685
-0.73558,-0.64333,-0.53933,-0.40055,-0.59114,-0.66851,-0.62404,-0.68995,-0.40144,0.090257,0.37025,0.26441,-0.036311,0.0014196,0.079502,0.047286,0.0036927,-0.17485,-0.12065,0.27612,0.50059,0.73067,0.87309,0.84669,0.87508,0.87508,0.99165,1.0904,0.65706,0.65706,0.33643,0.19911,-0.15173,-0.10706,-0.075093,-0.019466,0.13362,0.062447,0.47219,0.47219,0.74597,0.74597,0.74597,1.0144,1.0144,1.0144,1.2656,1.2656,1.3898,1.4981,1.4207,1.1798,1.0554,1.0554,1.0329,0.76932,0.76932,0.41451,0.41451,0.41451,0.42396,0.60985,0.65019,0.62833,0.62833,0.52839,0.37701,0.37701,0.46508,0.46508,0.46508,0.63824,0.60684,0.58622,0.51774,0.47248,1.1599,1.2139,1.049,1.049,0.8862,1.0336,0.91776,0.67774,0.67774,0.67774,0.67774,0.70578,0.70578,0.83342,0.83342,0.83342,0.83342,0.72753,0.72753,0.72753,0.72753,0.72753,0.72753,0.61495,0.61495,0.61495,0.80075,0.84946,0.77691,0.72979,0.72979,0.72979,0.72979,0.72979,0.72979,0.63654,0.63654,0.63654,0.63654,0.63654,0.63654,0.68397,0.68397,0.68397,0.68397,0.68397,0.68397,1.1337,1.1337,1.1337,1.1337,1.1337,1.6168,1.6168,1.9071,1.9071,1.9071,1.9071,1.9071,1.9158,1.9158,1.9628,1.9808,1.8876,1.7329,1.407,1.1024,0.7976,0.53724,0.25071,-0.034268,-0.055621,-0.099321,-0.062056,-0.062056,0.12089,0.0099123,-0.082479,-0.06141,-0.058477,0.17317,0.47337,0.3162,0.27286,0.19634,0.054368,0.25111,0.25111,0.30173,0.13594,0.16574,0.12742,-0.027247,-0.34212,-0.57077,-0.83025,-1.0643,-1.1595,-1.2143,-1.048,-0.89393,-0.51219,-0.16097,-0.16097
-1.0398,-0.81537,-0.63902,-0.52938,-0.65191,-0.63517,-0.54222,-0.54609,0.022783,0.12815,0.26291,0.20109,-0.049121,-0.095983,-0.096281,-0.23623,-0.21767,-0.15514,-0.056306,0.26732,0.50054,0.75912,0.98244,1.0448,1.0117,1.0117,1.0949,1.1267,0.58211,0.58211,0.28453,0.014532,-0.2567,-0.19695,-0.13906,-0.048827,0.17166,0.1441,0.29924,0.29924,0.70155,0.70155,0.70155,0.88145,0.88145,0.88145,1.0885,1.0885,1.2219,1.3645,1.243,1.1877,1.228,1.228,1.1309,0.97476,0.97476,0.64756,0.64756,0.64756,0.65,0.7247,0.83035,0.88543,0.88543,0.86258,0.72361,0.72361,0.61002,0.61002,0.61002,0.70525,0.75511,0.81825,0.70721,0.71307,1.2528,1.2674,1.1597,1.0925,1.0925,1.1042,1.057,0.88244,0.88244,0.88244,0.74813,0.70234,0.76969,0.78887,0.78887,0.78887,0.78887,0.59915,0.59915,0.59915,0.59915,0.59915,0.59915,0.67668,0.67668,0.67668,0.77802,0.88142,0.67283,0.68793,0.68793,0.68793,0.68793,0.68793,0.68793,0.641,0.641,0.641,0.641,0.641,0.641,0.67752,0.67752,0.67752,0.67752,0.67752,0.67752,1.1015,1.1015,1.1015,1.1015,1.1015,1.5445,1.5445,1.695,1.695,1.8457,1.8457,1.8457,1.9247,1.9247,2.0099,1.9566,1.811,1.6001,1.3249,1.1921,0.91186,0.58906,0.41905,-0.034268,-0.055621,0.19874,0.34385,0.34385,0.42816,0.34826,0.35512,0.20175,0.15643,0.42649,0.57351,0.36578,0.2107,0.23336,0.12433,0.26869,0.26869,0.31684,0.28037,0.21347,0.16309,0.11993,-0.20001,-0.52464,-0.75837,-0.91174,-1.1224,-1.1778,-1.0676,-0.93849,-0.64206,-0.42634,-0.42634
